ncols         398
nrows         31
xllcorner     91.102743
yllcorner     5.758472
cellsize      0.041667
NODATA_value  -9999
5106.12 5097.84 5081.24 5045.8 5003.48 4976.96 4929.6 4899.04 4869.04 4849.12 4829.08 4812.92 4869.88 4876.96 4785.36 4796.92 4807.4 4885.64 4943.92 4924.56 4966.08 4963.88 4940.72 4965.56 4875.12 4815.16 4790.52 4753.08 4779.84 4789.48 4793.32 4748.84 4753.16 4733.2 4803.76 4809.84 4828.76 4793.16 4805.56 4799.68 4716.64 4688.08 4671.52 4650.52 4666.44 4678.76 4663 4684.48 4693.72 4722.4 4784.16 4861.48 4821.72 4840.56 4843.44 4846.4 4809.32 4723.32 4751.2 4772.8 4760.76 4814.24 4807.36 4864.64 4769.52 4704.04 4661.64 4649.2 4689.4 4637.96 4575.24 4511.76 4505.88 4529.84 4471.44 4389.72 4362.16 4352.16 4346.84 4344.08 4340.44 4342.84 4368.8 4405.44 4362.84 4364.12 4364.4 4406.52 4492.04 4525.36 4498.96 4509.64 4487.28 4506.68 4552.2 4672.12 4642.96 4593.88 4654.72 4649.96 4547.48 4567.24 4533.28 4512.24 4544.76 4615.56 4686.32 4710.2 4828.88 4785.68 4751.52 4686.36 4708.36 4615.96 4589.28 4549.48 4545.4 4501.4 4495.4 4494.08 4501.36 4513.76 4627.96 4556.36 4476.96 4520.28 4451.36 4386.84 4370.72 4355.28 4341.72 4331.52 4328.88 4330.48 4329 4323.12 4318.12 4321.24 4347.52 4434.16 4439.68 4471.32 4452.36 4353.52 4360.96 4474.68 4525.44 4579.16 4620.48 4561.48 4445.6 4356.56 4339.4 4334.52 4411.84 4395.88 4448.28 4440.72 4324.92 4262.76 4339.52 4348.24 4298.04 4273.72 4302.96 4261.76 4245.6 4261.48 4269.2 4280.76 4306.8 4415.84 4410.6 4498.24 4518.28 4414.72 4334.76 4361.8 4385.8 4418.28 4481.48 4507.24 4540.44 4462.48 4471.52 4388.88 4285.16 4490.28 4529.16 4511.84 4344.88 4289.96 4185.24 4119.8 4232.6 4215.44 4085.08 4209.52 4486.76 4520.04 4219.6 4236.2 4268.76 4359.6 4182.48 4112.6 4033.2 4199 4041.4 3922 4048.88 4103.52 3888.92 4104.84 4087.08 3960.52 3927.72 3762.92 3459.4 3013.76 3342.16 3439.4 3588.8 3584.08 3729.68 3775.84 3672.12 3636.76 3676.92 3684.2 3749.8 3703.64 3698.08 3784.12 3842.48 3900.24 3905.64 3974.16 3974.8 3903.36 3914.44 3958.32 3915.88 3907.4 3756.08 3718.72 3753.4 3731.88 3676.88 3691.08 3730.2 3741.04 3746.24 3741.8 3748.8 3618.4 3626.72 3580.48 3634.32 3618.96 3648.08 3563.16 3744.12 3784.16 3735.52 3752.88 3826.36 3866.44 3894.84 3484.76 3222.84 3145.64 3215.08 3459.56 3742.64 3905.76 3891.28 3738.16 3630.8 3444.6 3371.28 3007.84 2999.52 2984.08 3041.08 3106.6 3188.6 3270.36 3469.6 3563.84 3634.16 3603.92 3517.4 3440.12 3323.16 3279 3262.88 3469.76 3229.64 3375.72 3031.68 2590.44 2376.2 2196.64 2584.64 2531.72 2467.2 2402.32 2423.72 2450.44 2402.8 2413 2325.76 2283.04 2245.44 2191.68 2096.28 2039.84 2023.04 2017.12 1949.96 1937.12 1899.04 1925.08 1975.8 1926.68 1777.12 1886.56 1921.48 2019.36 2003.8 2041.28 2003.32 1895.44 1895.36 1812.8 1822 1748.12 1858.96 1773.12 1802.76 1747.2 1779.64 1821.12 1817.8 1741.92 1755.4 1698.44 1646.88 1559.48 1567.56 1622.52 1495.76 1498.92 1592.6 1673.4 1714.68 1748.64 1664.68 1748.88 1760.04 1814.36 1907.96 1903.48 2125.04 2311.84 2260.04 2120.52 1931.84 1829.96 1973.36 1859.2 1725.16 1619.24 1540.12 1395.84 1326.12 1299.68 1292.56 1355.8 1471.52 1370.08 1341.68 1294.04 1272.64 1318.04 1373.8 1415.88 1352.12 1311.68 1250.08 1223.2 1142.04 1103.16 1109.68 1122.36 1082.92 1101.52
5146.08 5206.6 5161.84 5082.88 5103.88 5119.44 5079.72 4962.96 4926.24 4916.2 4848 4825.16 4808.32 4793.56 4765.16 4765.88 4794.16 4878.84 4951.24 4952.32 4942.12 4922.64 4969.88 4995.56 4955.72 4989.84 4948.92 4864.52 4799.84 4834.04 4834.8 4793.56 4804 4786.36 4778.08 4746.92 4739.04 4733.44 4726.36 4736 4671.92 4652.48 4632.16 4630.2 4601.28 4594.32 4611.96 4617.96 4612.52 4625.44 4647.48 4652.4 4650.24 4652.44 4644.24 4652.08 4678.92 4648.08 4733 4836.72 4820.2 4804.64 4786.92 4867.32 4862.56 4859.04 4805.84 4790.48 4813.2 4827.36 4782.4 4631.16 4572.64 4584.92 4685.6 4652.4 4560.36 4446.2 4430.8 4377.36 4364.6 4338.04 4334.72 4373.92 4404.88 4391.4 4352.44 4332.16 4375.76 4371.68 4384.16 4423.4 4453.56 4501.44 4585.16 4670.96 4665.64 4654.44 4710.92 4621.4 4593.12 4668.72 4613.88 4536.2 4483.92 4487.16 4531.4 4635.24 4760.2 4828.16 4765.68 4631.72 4690.04 4725.12 4717.56 4631.48 4640.76 4614.88 4616.12 4577.24 4628.84 4628.04 4688.4 4535.6 4525.76 4525.08 4466.44 4429.88 4423.56 4406.04 4374.64 4355.32 4329.84 4325.36 4320.36 4319.96 4318.84 4316.92 4321.88 4353.4 4459.52 4412.12 4339.44 4321.44 4330.68 4366 4402.12 4365.28 4382.32 4347.52 4314.32 4307.08 4321.28 4327.8 4419.6 4351.92 4344.68 4273.36 4257 4257 4323.24 4409.56 4315.68 4276.56 4325.6 4316.56 4223.12 4228.04 4318.88 4405.68 4352.28 4456.32 4412.88 4477.24 4483.32 4395.48 4301.44 4277.08 4284.2 4328.8 4399.16 4472.48 4581.2 4665.16 4460.24 4418.92 4346.64 4480.4 4721.52 4749.68 4418.48 4479.64 4499.28 4328.84 4076.8 4048.4 4123.52 4222.88 4304.96 4462 4331.36 4500.88 4238.84 4397.48 4427.68 4324.4 4330.92 4313.68 4198.64 4149 4291.72 4168.44 4142.12 4058.84 3837.88 3701.6 3565.24 3420.92 3190.56 2993.24 3304.88 3546.88 3593.24 3663.68 3598.12 3702.44 3755.6 3837 3767.32 3715.4 3771.88 3911.76 3899.04 3831.88 3855.72 3903.84 3996.2 3997.08 3912.16 3860.72 3868.4 3868.6 3842.64 3773.96 3685.16 3679.6 3686.28 3683 3648.28 3635.52 3622.92 3639.56 3659.96 3657.72 3617.56 3650.08 3565.4 3608.64 3743.92 3729.48 3709.96 3663.8 3653.28 3797.12 3925.04 4009.6 3964.16 3803.92 3621.76 3348.36 3249.84 3266.32 3332.16 3489.92 3648.28 3912.32 3793.72 3604.2 3511.92 3452.44 3180.08 3112.16 3021.76 3026.32 3024.96 3126.68 3152.48 3350.56 3409.76 3481.08 3561.48 3551.16 3527.4 3469.36 3410.16 3285.92 3155.56 3048.56 2903.88 3292.24 2941.68 2632.76 2479.08 2123.72 2428.92 2599.4 2601.28 2660.44 2624.92 2521.2 2512.72 2461.44 2399.88 2409.84 2308.48 2185.36 2167.64 2104.84 2126.52 2132.8 2095.64 1993.32 1923.08 1842.88 1809.44 1792.68 1752.28 1884.6 2012.28 2047.52 2002.4 2040.84 1960.6 1946 1806.16 1773.24 1744.6 1756.88 1721.6 1788.6 1688.64 1816.04 1879.88 1848.12 1798.6 1674.2 1697.8 1622.2 1594.16 1566.16 1765.32 1774.8 1648.76 1554.48 1564.96 1584.92 1608.2 1686.4 1645.84 1644.12 1728.12 1804.12 1823.6 1851.4 1987 2177 2404.92 2448.08 2217.72 1716.12 1606.96 1804.04 1747.4 1667.68 1778.08 1460.04 1190.04 1189.72 1173.36 1252.72 1379.08 1373.32 1373.08 1333.4 1292.92 1227.64 1240.52 1288 1276.96 1173.72 1152.4 1113.4 1096.2 1145.08 1164.16 1183.64 1106.8 1190.44
5253.76 5198.68 5153.96 5179.08 5117.84 5102.48 5109.36 5001.52 5076.92 4955.8 4874.96 4837 4821.88 4796.52 4773.16 4773.76 4818.88 4894.2 4947.68 4972.16 4938.84 4934.52 4953.2 5032.8 5215.68 5116.24 4977.16 4902.72 4878.76 4875.76 4881 4896.64 4914 4878.68 4811.96 4780.92 4716.52 4692.72 4675.56 4642.84 4646.28 4637.76 4630.6 4608.92 4611.96 4582.24 4582.52 4583.76 4582.8 4583.24 4590.4 4591.96 4589.44 4567.24 4563.48 4563.64 4573.68 4559.76 4577.48 4606.72 4640.08 4715.04 4831.24 4904.84 4838.64 4853.36 4827.8 4742.24 4684.48 4745.16 4899.48 4856.6 4822.68 4698.84 4587.12 4614.36 4702.8 4672.2 4583.84 4527.72 4517.08 4399.44 4435.44 4381.76 4422.6 4433.24 4418.24 4355.56 4332.56 4324.24 4375.4 4446 4557.48 4607.64 4715.44 4747.56 4847 4829.72 4734.2 4662.6 4631.4 4706.28 4703.32 4593.92 4538.6 4492.8 4469 4527.48 4585.6 4703.96 4668.76 4732.6 4706.52 4629.92 4626.44 4647.68 4646.28 4632.56 4627.56 4668.8 4697.32 4651.76 4610.52 4524.64 4640.04 4671.04 4563.96 4503.32 4529.92 4478.44 4495.36 4480.92 4397.92 4341.44 4326.76 4312.88 4328.96 4383.24 4313.64 4295.72 4329.36 4320.24 4356.28 4290.24 4285 4280.56 4281.6 4280 4280 4280 4280.32 4282.72 4333.76 4297.48 4377.04 4340.24 4284.64 4257.12 4257 4257 4264.8 4304.12 4295.12 4285.12 4283.36 4245.04 4234.68 4221.84 4271.56 4396.12 4452.56 4465.24 4501.72 4453.12 4482.08 4433.56 4337.8 4300.28 4267.28 4299.88 4361.56 4418.52 4491.64 4574.28 4634.64 4660.48 4428.96 4468.48 4676.84 4755.92 4623.12 4609.6 4451.04 4456.48 4393.88 4233.84 4025.8 4281.52 4464.48 4464.96 4649.92 4697.84 4571.88 4428.56 4440.6 4480.16 4331 4453.32 4286.32 4328.32 4365.6 4188.04 4023.04 3806.88 3719.16 3516.32 3502.88 3447.48 3536.68 3593.44 3198.6 3603.76 3827.16 3904.16 3958.2 3863.28 3812.08 3845.84 3850.48 3831.88 3797.96 3735.2 3848.72 3837.68 3910.8 3980.4 3949.52 4012.2 3864.56 3789.36 3786.84 3792 3727.64 3677.76 3654.6 3647.96 3638.56 3650.88 3739.36 3735.76 3665.56 3613.96 3616.04 3633.2 3644.16 3614.36 3638.4 3698.44 3864.88 3948.64 3815.92 3797.84 3733.24 3839.76 3932.2 3875.96 3713.52 3664.92 3540.72 3370 3416.64 3530.76 3602.24 3725.68 3767.68 3647.92 3675.92 3593.48 3430.24 3364 3268.8 3257.16 3061.68 2933.24 3033.24 3106.44 3158.16 3261.08 3341.52 3414.64 3503.36 3500.04 3497.16 3486.72 3412.64 3323.2 3209.56 3045.92 2776.72 2739.44 2508.4 2507.6 2482.88 2266.32 2261.52 2372.76 2719.52 2837.04 3036.72 2777.72 2913.44 2812.84 2777.12 2557.64 2468.16 2335.92 2262.96 2236.2 2202.52 2137.12 2043.16 1988.64 1960.72 1921.68 1821 1721.8 1714.52 1858.16 1809.92 1880.64 1904.72 2000.76 1970.88 1882.16 1905.76 1790.04 1707.36 1629.32 1576.4 1652.8 1752.8 1936.84 1929.8 1820.24 1650.32 1578.24 1502.28 1452.6 1533.36 1431.96 1626.28 1806.16 1780.52 1705.04 1730.6 1614.36 1608.52 1603.88 1672.4 1667.92 1750.56 1813.12 1723.4 1765.88 1872.6 1981.6 2123.96 2253.64 2366.4 1888.6 1544.32 1422.76 1481.12 1558.12 1580.12 1396.56 1159.44 1127.52 1133.68 1222.8 1349.4 1243.96 1343.72 1350.8 1307.68 1256.52 1228.64 1154.04 1157.12 1185.76 1211.72 1180.76 1184.04 1275.56 1238.32 1176 1168.68 1178.76
5222.92 5173.84 5083.6 5065 5057.88 5095.92 5024.68 4992.12 4997.16 4982.24 4923.6 4887.88 4867.4 4824.48 4797.84 4804.24 4811.6 4861.68 4904.44 4968 5054.84 5011.24 4951.36 4942.92 4997.6 5036.6 5133.84 5219.64 5102.76 4963.44 4969.72 5073.12 5189.96 5037.4 4884.28 4787.88 4737.2 4688.8 4657.56 4610.08 4606.16 4604.08 4588.6 4575.44 4548.64 4545.32 4546.16 4535.32 4546.68 4544.8 4541.32 4555.84 4539.88 4527.16 4515.36 4518.92 4524.72 4511.32 4512.52 4531.64 4547.88 4548.36 4569.32 4604.88 4676.84 4839.56 4986.88 4915.2 4772.84 4648.36 4693.2 4741.52 4799.08 4831.28 4780.6 4760.12 4795.6 4805.36 4823.84 4682.76 4680.48 4515.72 4695.2 4628.92 4584.32 4491.68 4470.56 4542.52 4406.2 4332.68 4391.92 4428.36 4530.64 4494 4599.72 4554.68 4779.4 4949.72 4931.48 4802 4736.52 4651.36 4646.44 4724.8 4719.48 4568.88 4480.92 4510.4 4567.16 4525.6 4585.48 4753.48 4745 4648.12 4677.92 4672.16 4649.44 4601.04 4595.6 4620.48 4581.92 4560.36 4619.4 4646.68 4689.16 4682.12 4648.88 4588.16 4699.68 4651.68 4563.92 4529.88 4422.76 4366.88 4333.28 4318.32 4314.96 4366.52 4460.32 4432.08 4281.52 4269.76 4291.32 4281.2 4280 4280 4280 4280 4280 4280 4280 4280 4285.48 4321.36 4398.08 4336.92 4272.2 4266 4257 4257 4259.28 4363.56 4359.72 4375.84 4318.4 4357.92 4241 4231.56 4228.4 4313.92 4416.48 4454.4 4517.16 4539.2 4486.44 4344.8 4251.6 4235.96 4257.56 4292.44 4347.6 4406.4 4444.64 4475.92 4561.68 4631.72 4635.72 4500.88 4591.88 4744.88 4856.64 4778.36 4466.04 4418.32 4579.4 4427.48 4208.4 4183.88 4281.64 4611.16 4663.4 4841.16 4768.96 4760.56 4865 4730.6 4406.08 4117.08 4082.08 4004.92 4103.44 4278 4075.4 3966.88 3892.92 4023.64 3912.52 3924.84 3992.76 3775.44 3255.32 3573.24 3700.12 3776.72 3984.32 4364.04 4253.2 4195.12 4193.24 4123.36 4067.2 3992.52 3879 3925.8 3881.12 3975.56 4155.16 4051.6 3924.24 3843.2 3794.64 3751 3705.2 3674.28 3662.68 3647.92 3638.24 3652.52 3742.44 3734.56 3661.88 3610.64 3607.72 3682.92 3706.04 3648.48 3678.48 3756.64 3883.32 4001.64 3914.72 3846.88 3817.6 3719.56 3697.52 3676.4 3647.64 3760.32 3667 3544.28 3642.04 3708.32 3819.24 3829.44 4022.08 3907.12 3617.32 3410.56 3332.88 3458.96 3359.12 3242.24 3056.4 3012.08 3148.2 3198.32 3205.2 3226.72 3290.92 3392.48 3485.6 3513.84 3532.04 3551.12 3553.08 3457.16 3289.6 3083.36 2823.08 2577.48 2491.64 2494.24 2716.2 2767.72 2865.76 2560.72 2724.04 3205.52 3151.6 3130.76 2980.68 3093.52 3102.68 2958.24 2770.88 2657.96 2605.12 2489.48 2380.16 2218.8 2153.32 2182.04 2079.36 2001.76 1937.44 1798.2 1700.36 1726.52 1882.8 1946.96 2003.8 2068.56 1993.32 1916.16 1736.52 1814.36 1834.24 1777.48 1765.88 1595.44 1716.32 1871.24 1851 1816.96 1802.04 1669.04 1541.48 1385.48 1369.32 1388.84 1600.16 1650.96 1790.68 1824.16 1825.92 1724.96 1773 1724.32 1762.36 1738 1743.72 1703.28 1852.72 1901.52 1824.64 1870.6 2034.08 2139.84 2051.08 2273.12 1930.24 1501.2 1282.24 1198.08 1277.64 1420.92 1082.44 1015.24 1101.48 1116.92 1185.52 1206.2 1299.56 1235.16 1283.72 1306.52 1268.88 1240.52 1245.04 1225.84 1286.28 1218.96 1226.68 1336.08 1250.48 1204.88 1184.48 1266.16
5080.36 5086.8 5077.2 5103.4 5210.8 5225.88 5099.84 5018.68 4965.68 4949.84 4951.48 4912.08 4918.24 4878.48 4858.12 4813.04 4830.84 4837 4854.24 4883.24 4925 4914.44 4890.2 4890.04 4923.24 4967.4 4999.64 4968.8 4930.56 4945.04 4998.88 5017.84 5051.16 4984.72 4875.2 4816.52 4769.36 4772.92 4668.28 4624.16 4613 4595 4581.68 4565.24 4552.56 4544.76 4531.44 4521.16 4514.24 4516.28 4542.52 4577.84 4535.52 4504.88 4491.88 4494.92 4519.88 4482.2 4485.56 4492.68 4496.32 4489.68 4491.48 4523.92 4573 4646.92 4757.64 4880.96 4835.96 4720.8 4645.92 4606.72 4643.6 4670.36 4617.2 4613.16 4606.84 4575.24 4555 4748.16 4887.72 4806.44 4798.04 4707.96 4725.24 4783.44 4688.52 4608.28 4552.76 4569.76 4486.56 4398.04 4315.52 4386.56 4390.12 4463.4 4620.16 4844.52 4893.84 5048.2 4817.44 4816.84 4718.48 4664.68 4727.76 4698.08 4597.84 4455.96 4510.6 4491.2 4573.16 4579.96 4723.28 4657.92 4720.84 4796.84 4718.76 4627.96 4583.24 4573.96 4546.44 4531.44 4517.84 4509 4503.48 4505.4 4514.52 4552.92 4610.16 4697.84 4755.36 4633.68 4476.64 4392.32 4340.48 4330.28 4327.4 4323.64 4353.24 4441.32 4454.52 4316.2 4345.04 4324.88 4288.88 4280 4280 4280 4280 4280 4282.96 4320.68 4330.24 4371.92 4369.72 4262.84 4257 4257 4257 4257 4259.96 4372.4 4433.28 4420 4337.76 4309.52 4225.84 4315.56 4245.28 4219.84 4246.68 4332.92 4371.52 4357.32 4389.92 4320.6 4271.52 4242.04 4249.56 4278.96 4314.28 4350.72 4413.6 4469.16 4546.52 4678.6 4808.8 4665.04 4508.16 4593.08 4883.92 4747.8 4638.84 4731.52 4670.48 4310.12 4320.84 4381.84 4599.44 4496.32 4695.24 4826.72 4677.92 4768.04 4850 4820.04 4727.88 4488.4 4350.64 4281.08 3998.24 4086.52 4444.72 4186.28 4288.48 4205.6 4116.64 4080.96 3962.16 3822.04 3367.24 3452.08 3672.92 3820.2 4106.6 3997.44 3939.72 4370.4 4193.6 4063.24 4069.88 4097.32 4093.68 3987.24 3910.36 3942.84 4012.12 4108.16 4254.56 4072 3930.64 3804.24 3730.48 3805.12 3837.48 3764 3698.28 3668.6 3647.48 3637.12 3617.12 3605.6 3592.56 3614.76 3618.32 3633.36 3661.28 3744.24 3966.72 4103.2 3964.24 3896.32 3782.76 3675.76 3616.16 3713.04 3867.12 3878.84 3856.68 3766.96 3697.24 3762.92 3866.92 3835.64 3562.2 3701.56 3583.08 3358.44 3228.16 3351.52 3418.64 3278.56 3191.32 3152.44 3193.68 3282.12 3361.56 3452.84 3503.44 3525.2 3531.6 3524.36 3498.8 3614.36 3770.68 3660.32 3555.48 3328.64 3139.12 2856.36 2904.48 2916.8 2889.04 2873.32 2601.68 2320.6 2777 3134.2 3131.56 3199.56 3360.2 3374.56 3093.32 2672.48 2621.08 2650.48 2534.68 2226.6 2271.68 2384.44 2315.72 2301.16 2197.56 2087.52 2047.16 2048.6 1842.16 1758.28 1907.08 2000.56 2046.88 2044.48 2052.44 1893.16 1752.88 1670.36 1610.6 1569.52 1550.28 1607.32 1543.76 1748.96 1812.48 1734.52 1657.44 1710.52 1660.6 1560.24 1533.52 1377.4 1534.16 1616.88 1619.88 1701.84 1819.44 1796.2 1732.28 1816 1842.2 1818.8 1720.2 1697.12 1715.64 1801.4 1867.12 1928.48 1995.16 2101.96 1959.16 2184.08 2209.56 1959.56 1606.68 1286.48 1135.84 1094.88 1041.92 969.08 978.92 1058.28 1070.32 1194.84 1199.84 1119.6 1086.76 1209.48 1310.36 1286.52 1278.32 1242.68 1325.2 1250.32 1326.84 1377.84 1199.12 1223.56 1288.76 1352.32
5131.32 5161.28 5214.12 5260.32 5196.2 5109.6 5080.48 5029.96 4994.04 4972.16 4961.68 4936.24 4926.56 4889.08 4862.44 4847.88 4863.64 4885.12 4891.08 4890.28 4883.16 4868.12 4848.08 4858.44 4857.48 4873.28 4841.08 4816 4838.8 4887.36 4871.04 4810.4 4780.24 4773 4766.88 4731.28 4719.48 4705.56 4666.32 4621.36 4596.6 4595.28 4612.52 4649.6 4585.32 4563.08 4544.4 4536.2 4523.2 4522.08 4585.72 4568.32 4562.4 4575.32 4533.28 4484.2 4486.88 4464.8 4457.04 4471.6 4463.16 4451.28 4466.4 4470.16 4498.52 4528.92 4590.32 4700.64 4789.44 4845 4828.64 4726.64 4643.76 4594.04 4554.04 4500.36 4468.48 4421.44 4413.64 4446.24 4510.8 4620.96 4780.04 4847 4754.88 4635.08 4632.36 4690.16 4736.4 4663.08 4514.92 4419.24 4273.12 4328.88 4376.2 4574.52 4639.84 4750.6 4804.56 4976.64 4998.84 4834.76 4736.12 4665.84 4535.4 4544.68 4598.4 4432.28 4598.8 4541.72 4635 4765.76 4624.12 4615.96 4630.92 4690.24 4795.72 4770.52 4650 4616.52 4616.32 4602.2 4538.8 4514.16 4497.28 4485.52 4478.6 4467.68 4479.88 4533.12 4608.28 4567.56 4498.32 4408.96 4349.2 4341.52 4342.2 4353.16 4358.44 4382.64 4442.32 4422.36 4418.28 4454.68 4426.12 4379.8 4313.48 4280 4280 4281.36 4301.48 4395.56 4361.92 4291.56 4264.2 4257 4257 4257 4260.2 4257 4257 4263.08 4290.56 4341.88 4315.44 4246.64 4247.48 4284.32 4236.84 4274.32 4221.68 4233.52 4251 4268 4314.04 4316.4 4263.48 4275.6 4270 4276.12 4310.52 4342.76 4379.4 4430.16 4490.04 4606.52 4748.8 4697.52 4545.32 4589.92 4649.88 4695.92 4708.68 4622.84 4612.44 4577.76 4339.4 4341.68 4451.52 4916.92 4901.52 4610 4386.76 4356.08 4448.4 4461.56 4620.12 4697.56 4577.72 4278.12 4137.56 3902.16 3896.4 4174.12 3999.64 3909.4 3969.04 3898.4 3679.96 3542.96 3460.8 3447.36 3783.4 3852.92 3815.6 3707.4 3932.36 3883.24 3800 3937.84 4020.68 4272.88 4065.28 3836.28 3979.56 4052.08 4024.88 4094.76 4036.52 4077.08 3946.56 3847.12 3796.76 3816.32 3754.56 3750 3761.28 3682.4 3589.88 3578 3605.72 3624.8 3591.04 3566.2 3607.64 3638.24 3666.72 3736.76 3849.68 4033.92 4009.76 3951.6 3774.32 3587.72 3550.44 3655.96 3838.24 3943.48 3919.4 3731.6 3599.52 3532.76 3509.24 3492.32 3443.84 3461.16 3369.4 3289.92 3302.76 3374.32 3300.28 3190.96 3153.32 3219.88 3273.08 3279 3317.16 3296.08 3305.2 3379.24 3527.84 3512.4 3586.4 3463.04 3358 3246.6 3280.6 3319.72 3192.56 2937.36 3034.52 2963.2 2795.8 2578.36 2557.28 2462.76 2611.28 2738.4 3036.16 3099.44 3091.92 3144.4 3203.44 2925.88 2532.6 2417.36 2286.88 2286.04 2161.44 2062.4 2023.56 2156.8 2098.88 2315.6 2275.8 2117.56 1937.36 1767.52 2013.04 2230.68 2208.4 2119.56 1944.6 2003.12 1862.68 1806.68 1757.16 1639.72 1567.64 1564.72 1399.92 1565 1782.04 1768.16 1726.64 1640.84 1593.28 1501.08 1455.04 1272.52 1392.8 1451.84 1584.76 1627.92 1736.08 1803.72 1818.32 1726.96 1773.16 1792.56 1775.84 1672.52 1651.6 1732.8 1905.96 1826.64 2047.96 2111.16 2035.44 2014.28 2212.48 2007.2 1715.76 1449.76 1220.32 1113.8 1078.28 1007.56 937.24 925.52 1021.52 1033.36 1073.56 1017.72 1092.6 1188.32 1223.76 1346.36 1291.92 1273 1328.96 1310.56 1313.64 1294.48 1249.08 1331.88 1340.6 1351.48
5222.92 5281.08 5317.84 5222.36 5119.88 5069.68 5034.28 5015.44 5001.96 4999.52 4939.24 4929 4906.44 4894.28 4902.2 4927.16 4948.6 4974.52 4945.6 4944.16 4907.44 4884.52 4833.52 4823.52 4816.16 4797.88 4783.8 4786.84 4806.2 4856.28 4881.52 4798.84 4789.48 4800.08 4787.48 4747.56 4714.2 4667.56 4642.08 4682.52 4633.48 4654.36 4661.04 4671.48 4619.28 4594.04 4573.44 4572.44 4537.8 4513.8 4518.28 4495.92 4493.96 4541.4 4517.48 4482.36 4440.32 4434.04 4420.32 4417.84 4414 4418.72 4427.08 4452.36 4457 4472.24 4514.56 4580.36 4645.08 4716.64 4792.52 4834.08 4804.16 4758.04 4690.2 4658.32 4551.6 4458.12 4390.84 4354.2 4357.88 4374.88 4436.92 4541.76 4658.84 4752.08 4630.6 4519.96 4507.6 4626.76 4634.32 4528.4 4292.96 4314.44 4486.92 4559.44 4597.8 4686.08 4686.36 4856.04 4922.08 4915.52 4876.2 4769.48 4586.28 4563.36 4611.64 4455.56 4556.96 4658.52 4726.4 4794.68 4740.16 4646.92 4637.44 4627.68 4681.36 4731.12 4679.64 4643.4 4620.12 4604.56 4543.2 4538 4570.6 4611.12 4559.64 4508.64 4475.6 4449.56 4455.72 4447.52 4439.04 4413.56 4460.48 4425.72 4419.12 4527.64 4517.32 4436.08 4418 4399.68 4372.16 4391.48 4414.24 4437.48 4409.6 4315.76 4296.84 4294.2 4306.96 4316.16 4299.4 4265.92 4262.92 4257.96 4257 4258.6 4266.48 4262.16 4266.68 4273.28 4269.84 4294.76 4329.28 4248.2 4252.96 4261.64 4256 4303.76 4218.76 4269.68 4210.4 4228.28 4215.96 4215.12 4250.72 4351.88 4298.72 4274.32 4303.08 4338.36 4371.16 4402.2 4445.96 4516.64 4696.2 4698.36 4619.4 4551.36 4694.24 4738.72 4678.32 4641.6 4405.16 4467.56 4402.64 4432.76 4400.88 4700.2 5592.8 4948.52 4420.56 4378.92 4221.92 4122.28 4087.76 4202.64 4397.2 4414.32 4176.36 3993.6 3707.08 3830.96 3707.56 3763.88 3767.76 3593.16 3518.32 3729.12 3945.04 3595.4 3538.32 3567.24 3476.8 3578.68 3646 3810.72 3922.28 4112.04 4277.08 4102.88 3941.48 3774.56 3992.08 3924.12 3750.16 3930.52 3917.24 4024.28 3933 3825.56 3743.32 3722.72 3658.92 3699.04 3700.08 3647 3568.28 3569 3583.92 3597.96 3562.56 3548.6 3589.36 3619.48 3656.04 3750.76 3926.76 4051.64 3940.24 3932.88 3771.52 3555.92 3489.44 3613.4 3758.8 3848.68 3900.52 3732.24 3647 3626.76 3573.24 3510.8 3369.84 3304.88 3257.04 3203.2 3157.32 3205.08 3223.04 3104.2 3074.48 3242.56 3279.8 3195.4 3238.08 3280.28 3226 3184.24 3260.44 3378.76 3459.48 3466.04 3384.6 3389.68 3116.88 3181.68 3037.92 2857.76 2855.32 2733 2683.84 2584.48 2386.04 2681.84 2936.32 2807.6 3070.56 3139.88 3094.2 2896.72 2751.76 2724.2 2612.44 2494.76 2418.76 2602.4 2434.28 2205.08 2079.16 1965.24 1962.68 2194.68 2244.8 2081.04 1889.88 1669.52 1808.88 2127.28 2188.8 2043.2 1950.76 1842.12 1726.4 1764.16 1781.76 1750.96 1740.84 1610.84 1403.32 1528.84 1638.04 1699.84 1759.6 1704.04 1685.12 1591.96 1487.6 1325.24 1523.08 1428.12 1497.56 1591.2 1659.24 1795.52 1819.88 1607 1676.36 1698 1624.64 1596.44 1650.96 1767.68 1776.88 1774.76 1923.64 2038.6 2056.64 1898.2 2112.16 2047.64 1884.88 1568.84 1528.56 1367.32 1168.28 1071.64 1011.2 925.68 914.36 945.92 994.52 978.8 1101.84 1146.08 1155 1232.52 1308.16 1350.48 1325.4 1361 1350.88 1375.04 1311.68 1379.56 1379.64 1403.44
5270.84 5244.12 5268.96 5205.28 5144.6 5067.76 5023.88 4972.2 4941.28 4924.6 4904.12 4908.76 4913.44 4895.4 4866.92 4906.04 4898.88 4913.08 4899.88 4901.92 4908.68 4915.88 4882.92 4853.24 4857.16 4832.88 4801.28 4842.8 4855.84 4911.84 4972 4958.64 4912.68 4972.6 4932.16 4812.24 4756.88 4702.48 4670 4698.92 4699.2 4849.2 4779.32 4716.68 4739.72 4758.56 4741.12 4691.52 4599.64 4538.6 4518 4491.2 4473.04 4465.4 4472.6 4485 4470.24 4415.08 4412.48 4398.04 4391.24 4395.6 4398.96 4416.76 4417.44 4434.08 4453.44 4477.24 4517.56 4563.36 4693.12 4798.44 4800.84 4805.8 4888.2 4845.4 4785.52 4702.52 4576.48 4432.72 4318.48 4288.84 4288.72 4305.72 4335.28 4425.28 4569.4 4658.84 4449.36 4405.28 4579.76 4603.52 4394.68 4340.28 4404.24 4391.72 4478.2 4531.68 4602.92 4803.44 4978.48 4806.04 4949.2 4888.4 4785.16 4611.12 4588.4 4429.76 4411.4 4618.24 4831 4715.68 4684.12 4705.32 4705.92 4666.24 4662.88 4681.92 4689.4 4643.96 4603.92 4580.48 4584.2 4649.84 4710.56 4688.96 4639.36 4601.56 4592.04 4548.24 4479.72 4442.64 4468.72 4459.88 4487.8 4568.28 4568.68 4604.96 4632.88 4610.04 4486.4 4382.92 4373.64 4363.6 4384.4 4388.56 4358.4 4352.36 4333.16 4302.84 4292.12 4281.6 4277.96 4271.48 4303.12 4304.88 4267.44 4274.24 4291.48 4297.56 4309.68 4364.16 4377.36 4349.4 4313.48 4285.56 4268.4 4253.08 4260.48 4254.32 4223.68 4281.96 4199.08 4227.8 4256.76 4243.16 4248.2 4271.16 4322.92 4328.04 4327.2 4303.12 4330.28 4387.72 4465.28 4472.76 4558.72 4706.2 4753.36 4636.44 4644 4688.6 4815.4 4795.08 4693.08 4611.44 4501.88 4573.12 4524.24 4525.08 5325.84 5276.4 4694.08 4701.92 4516.16 4271.28 3921.04 4082.6 3908.88 3955.04 3950.08 3893.92 3946.56 3922.32 3794.48 3974.6 3887.04 3869.4 4002.48 3655.96 4046 3641.96 3959.16 3866.6 3948.8 3525.4 3578.92 3988.56 4192.92 4194.84 4265.28 3884.84 3774.08 3633.8 3715.68 3673.04 3780.36 3832.84 4012.68 4043.08 3907.36 3891.04 3901 3722.72 3630.04 3570.64 3588.32 3562.2 3553.4 3536.92 3542.16 3613.68 3642.92 3591.56 3605.36 3637.64 3654.64 3756.64 3929.84 4059.76 3970.8 3756.64 3657.8 3590 3615 3564.24 3664.32 3744.32 3784.6 3646.2 3556.36 3526.84 3591.96 3486.96 3422.12 3333.56 3203.84 3200.64 3328.76 3438.6 3372.96 3289.28 3115 3065.84 3160.4 3110.76 3254.32 3186.04 3221.2 3134.32 3110.68 3273.48 3180.68 3141.68 3319.44 3331.8 3385.12 3286.24 3273.68 3099.08 2964.8 2857.56 2947.28 2601.96 2422.16 2709.6 2898.48 2946.12 3101.32 3230.04 3093.68 2933.8 2889.04 2778.72 2569.6 2527.32 2673.88 2683.44 2575.4 2517.68 2246.08 2159.56 2004.32 2088.44 1920.92 1874.52 1901.56 1790.88 1674.6 1786.92 1981.08 2002.76 1835.2 1566.4 1459.2 1437.6 1500.04 1539.4 1537.32 1575 1469.64 1350.84 1390.28 1454.8 1637.92 1743 1601.16 1654.04 1464.6 1355.28 1580.6 1569.28 1604.28 1591.52 1655.6 1645.72 1759.24 1637.52 1515.12 1475.08 1470.2 1557.52 1645.84 1637.44 1647.08 1801.84 1830.36 1912.76 1900.68 1823.56 2091 2119.04 2007.8 1765.44 1835.92 1516.04 1260.92 1146.84 1070.76 997.44 952.08 856 909.12 1020.76 1094.16 1120.08 1142.36 1220.64 1312.92 1363 1381.56 1413.64 1428 1422.2 1422.2 1410.32 1430 1428.52
5133.16 5178.92 5270.36 5386.56 5172.24 5094.4 5001.8 4965.12 4936.92 4907.76 4898.12 4898.44 4881.12 4868.88 4874.08 4911.36 4861.64 4888.88 4883.8 4897.76 4835.92 4869.12 4839.04 4835.88 4891.96 4932.24 4871.52 4923.52 4922.36 4930.92 5006 5047.76 5015.32 5047.92 5019.56 4948.28 4829.2 4855.92 4811.4 4771.68 4766 4867.2 4870.36 4868.72 4967.44 4994.52 4830 4802.12 4713.12 4624.64 4533.48 4499.52 4493.44 4477.04 4485.8 4461.56 4434.88 4422.08 4411.96 4404.36 4393.44 4383.76 4377.72 4374.16 4380.16 4390.64 4408.52 4427.8 4450.28 4504.64 4536.64 4634.84 4688.68 4715.08 4704.24 4740.16 4706.08 4800.2 4757.72 4604.08 4394.2 4269.84 4274.92 4264.12 4252.28 4254.4 4261.52 4338.8 4427.96 4342 4469.88 4456.56 4286.88 4484.64 4575.8 4532.68 4519.16 4526.96 4715.8 4880.96 4901.48 4780.84 4912 4830.84 4887.12 4740 4515.92 4402.16 4362.92 4545.4 4841.52 4644.96 4542.92 4545.24 4603.64 4657.56 4700.72 4700.64 4753.8 4673.52 4603.12 4574.32 4585.4 4649.76 4745.32 4787.16 4757.36 4709.28 4644.8 4572.48 4542.12 4490.48 4509.88 4511.08 4487.28 4553.6 4525.16 4498.64 4532.76 4607.64 4596.12 4422.16 4407.4 4407.48 4380.96 4368.08 4331.56 4326.72 4311.8 4302.92 4300 4282 4274.8 4270.64 4304.28 4307.44 4295 4292.76 4308.4 4329.88 4348.52 4351.28 4345.8 4330 4373.48 4353.08 4365.96 4256.36 4247.2 4244.4 4252.32 4275.92 4216.6 4288.24 4277.28 4287.92 4338.56 4325.32 4289.12 4330.64 4301.12 4266.68 4278.72 4403.92 4415.04 4362.28 4417.32 4490.56 4601.12 4659.64 4667.32 4581.44 4644.64 4802.68 4761.56 4732.88 4759.48 4714.84 4698.36 4617.8 4801.8 5593.4 5177.36 4822.12 4507.88 4432.56 4027.96 4469.96 4152.04 4368.84 4027.92 4115.28 4467.2 4122.04 3906 4337.92 4162.32 4318.76 4092.16 3693.96 4298 3999 3964.48 4090.72 4056.96 3889.48 3479 3425.4 3751.6 3856.44 3831.28 3803.2 3491.56 3416.44 3466.72 3579.44 3848.48 3735.92 3920.6 4033.8 3927.32 3867.64 3986.24 3816.32 3718.12 3602.36 3556.92 3572.72 3554.44 3546.08 3531.32 3525 3574.68 3573 3624.48 3714.4 3652 3783.84 4067.64 4066.8 3858.28 3721.6 3557.64 3701.16 3759.6 3531.52 3600 3684.12 3763.96 3727.12 3643.88 3497.68 3398.2 3402.96 3392.24 3306.32 3310.48 3415.04 3460.28 3337.16 3209.4 3077.72 3068.2 3030.8 3008.44 3012.2 3139.56 3019 3009.64 3014.16 2981.72 3072.8 2987.24 2963.2 2990.84 3084.36 3130.2 3166.68 3148.76 3164.36 3024.8 2977.88 2671.08 2759.6 2518 2467.2 2778.16 2985.68 2915.84 3112.08 3122.36 3087.68 3081.76 2809.84 2760.48 2796.52 2799.28 2675.08 2528.16 2344.72 2339.84 2247 2194.76 2181.88 2134.08 1964.16 1872.08 1802.8 1976.4 1679.4 1564.28 1594.52 1498.04 1467.76 1555.84 1563.36 1544.36 1498.08 1422.24 1399.28 1368.24 1330.44 1298.6 1300.08 1455.32 1573.76 1481.88 1518.2 1478 1291.96 1414.64 1490.92 1503.2 1469.6 1595.64 1520.52 1622.68 1668.04 1519.4 1540.56 1483.28 1443.48 1486.44 1583.52 1657.52 1715.48 1772 1816.92 1739.72 1996.36 2145.24 2124.48 2084.32 1917.2 1726.2 1602.84 1388 1184.44 1071.44 1155.76 1183.04 975.12 845.76 903.64 986.44 1055.52 1262.16 1324.08 1406.4 1473.96 1474.48 1506.68 1506.96 1506.4 1442.44 1445.88 1400.36 1406.36
5251.52 5301.92 5248.44 5129.56 5071.8 5035.84 5003.8 4954.36 4937.24 4927.52 4885.2 4907.04 4920.8 4867.72 4848.2 4857.84 4859.64 4809.48 4801.2 4787.68 4796.28 4766.92 4834.56 4860.4 4840.92 4837.32 4847.04 4813.64 4792.8 4835.6 4909 4992.32 4984.52 4926.2 4899.64 4831.12 4945.84 4899.64 5031.16 4919.96 4883.84 4910.72 4925.44 4926.8 4925.48 4971.64 5027.88 4931.68 4722.44 4644.8 4615.72 4542.2 4515.6 4510.32 4513.36 4503.48 4462.6 4489.64 4438.2 4431.36 4413.16 4400.04 4378.6 4363.28 4356.24 4364.56 4380.68 4406.88 4403.76 4429.36 4462.32 4466.52 4469.04 4504 4528.2 4511.92 4548.2 4518.04 4446.36 4431.96 4355.04 4346.48 4517.08 4371.28 4337.64 4303.44 4279.04 4274.48 4276.28 4234.4 4223.84 4275.56 4264.36 4280.84 4338.04 4507.28 4650.44 4632.72 4851.04 4742.12 4565.56 4745.24 4708.64 4648.28 4728.68 4855.44 4603.32 4374.08 4374.88 4501.68 4714.24 4722.08 4549.24 4500.92 4598.68 4735.64 4680.52 4722.16 4806.68 4740.6 4648.72 4605.44 4629.68 4615.88 4681.44 4753.96 4771.76 4702.6 4640.96 4611.24 4575.56 4502.12 4532.12 4563.44 4543.08 4503.88 4482.72 4465.88 4460.16 4486 4512.88 4482.52 4578.48 4539.44 4449.4 4414.48 4425.12 4455.6 4397.76 4367.12 4335.96 4312 4295.52 4276.24 4274.8 4304.72 4351.76 4415.28 4367.12 4366.56 4383.4 4371.16 4275.68 4244.12 4242.2 4258 4271.96 4300.24 4318.96 4276.56 4261.2 4277.52 4284.92 4289.24 4267.36 4315.56 4382.24 4334.88 4291.76 4254.24 4232.08 4216.32 4275.24 4362.4 4429.68 4360.64 4330.8 4370.44 4492.64 4658.8 4679.04 4560.52 4505.6 4541.44 4552.64 4605.44 4660.44 4606.84 4595.36 4614.44 4609.04 4817.28 4919.92 4944.52 4494.64 4143.76 4549.4 4434.8 4420.96 4185.72 3942.2 4117.8 4509.84 4274 4059.88 4367.4 4384.92 4435.52 4122.6 3737.96 4407.12 4134.28 4172.92 4331.28 4347.2 3837.44 3587.08 3541.76 3322.28 3326.04 3375.72 3450.84 3451.48 3504.32 3515.12 3476.12 3561.96 3769.44 3944.64 4024.84 3861.36 3955.2 4047.32 3981.92 3829 3762.44 3668.24 3544.36 3523.12 3498.16 3497.44 3520.52 3582.04 3605.52 3637.68 3633.88 3661.52 3741.36 3849.28 4002.92 3968.48 3832.68 3587.4 3652.64 3781.88 3601.64 3414.04 3570.24 3537.52 3544.68 3490.92 3464.16 3436.64 3313.76 3457.96 3514.72 3424.44 3324.84 3205.84 3186.92 3158.6 3192.92 3259.68 3219.84 3076.12 2957.52 2874.52 3018.36 2998.2 3041.72 2912.6 2985.36 2860.56 2873.84 2872.96 2937.24 2959.12 2865.04 2925.36 2933.52 2955.64 2980.6 2914.08 2819.52 2738.4 2441.84 2422.96 2640 2777.88 2776.52 2930.72 2918.32 2818.32 2752.76 2887.36 2783.16 2568.12 2400.36 2218.6 2172.88 2109.8 2061.92 2039.84 2032.4 2046.08 1977.36 1728.28 1925.04 2037.32 1824.48 1981.4 1774.24 1683.24 1654.44 1624.68 1744.2 1747.56 1680.8 1656.52 1725.84 1568.8 1601.52 1556.8 1496.88 1450.72 1338.56 1288.48 1462.24 1256.68 1148.76 1155.4 1344.76 1367.6 1405.28 1526.96 1424.8 1402.44 1420.68 1578.52 1754.84 1754.6 1668.32 1648.04 1589.32 1605.92 1667.56 1753.28 1834.24 1792.64 1701.64 1974.8 2103.92 2068.56 1957.16 1909.68 1792.2 1361.36 1331.84 1205.8 1090.04 1217.68 1143.76 896.84 805.8 868.96 923.24 1026.76 1228.68 1331.12 1471.28 1519.28 1540.64 1449.68 1482.52 1401.4 1336.24 1351.64 1326.44
5084.88 5108 5187.68 5167.92 5188.44 5160.4 5108.24 5002.64 4946.64 4893.4 4874.32 4868.2 4861.68 4888.08 4825.12 4816.36 4795.96 4787.44 4765.24 4758.44 4728 4708 4703.16 4738.52 4712.44 4715.84 4763.44 4736.32 4723.96 4754.68 4759.08 4782.4 4847.6 4810.08 4756.88 4888.04 4771.04 4771.92 5042.08 4977.84 4966.84 4944.08 4891.96 4866.72 4982.08 5000.68 4922.8 4749.48 4723.28 4767.16 4696.48 4636.64 4576.68 4561.76 4553.44 4537.92 4502.6 4501.92 4465.28 4455.76 4444.08 4423.8 4407.28 4382.48 4356.96 4349.16 4350.2 4350.4 4362.56 4440.16 4414.44 4429.92 4443.88 4591.16 4677.24 4630.44 4396.48 4356.36 4392.16 4500.64 4559.8 4376.76 4631.4 4618.4 4594.48 4507.92 4503.28 4392.24 4398.08 4313.92 4263.28 4242.36 4236.44 4320.36 4440.84 4422.2 4462.36 4638.92 4730.24 4586.84 4457.52 4557.12 4649.28 4549.24 4763.88 4837.6 4508.4 4548.16 4555.88 4605.84 4844.92 4735.76 4594.96 4508.64 4569.4 4620.2 4744.76 4841.68 4806.2 4769.88 4677.88 4628.08 4701.04 4658.2 4634.04 4669.32 4704.28 4718.52 4741.08 4674.84 4594.32 4574.92 4562.52 4554.4 4540.16 4509.68 4474 4471.04 4494.48 4510.04 4473.28 4543.88 4630.52 4630.36 4556.68 4589.12 4490.28 4529.08 4512.56 4489.8 4536.64 4471.28 4447.88 4362.16 4288.92 4326.76 4448.08 4540.16 4552.88 4377.72 4346.76 4341.52 4268 4243.2 4228.6 4222.2 4219.84 4219.32 4220.32 4215.04 4231.64 4345.92 4401.56 4311.48 4242.12 4289.16 4341.24 4330.96 4304.84 4306.24 4278.52 4242.08 4203.28 4200.6 4289.68 4315.52 4417.12 4369.16 4399.48 4605.88 4655.48 4610.92 4538.6 4592.68 4628.04 4684.32 4800.8 4800.88 4820.6 4731.76 4694.12 4726.4 4595.72 4373.6 4482.36 4337.16 4231.64 4438.76 4402.52 4153.48 3931.96 4009.88 4185.08 4116.2 4119.88 4489.12 4334.08 4232.92 4051.68 3808.48 4215.12 4251.84 4359.6 4394.12 4270.8 4016.2 3680.32 3509.72 3502.6 3563.08 3487.32 3644.12 3731.2 3771.32 3549.04 3560.76 3833.04 4112.68 4014.04 3946.08 3741.88 3850.36 3881 3739.04 3753.16 3681.56 3687.16 3567.64 3522.6 3555.96 3552.16 3558.6 3598.52 3669.64 3653.32 3633.84 3612.88 3671.88 3797.36 3949.84 3991.76 3724.56 3556.48 3569.6 3516.6 3546.2 3409.48 3454 3647.68 3606.92 3510.6 3538.32 3349.6 3497.44 3651.4 3572.44 3530.76 3429.36 3444.2 3514.92 3412.68 3349.24 3207.12 3040.88 2988.6 3070.28 3189.32 2975.28 2815.84 2858.08 2816.2 2882.16 2895.92 2898.64 2847.4 2851.28 2838.72 2791.08 2784.68 2822.2 2781 2836.28 2867.2 2844.8 2704.84 2627.68 2565.08 2367 2353.44 2590.2 2770.4 3030.16 3042.84 2953.48 2999.04 2725.84 2587.28 2332.04 2334.16 2486.12 2268.56 2193.2 2105.08 1852.68 1796.64 1788.56 1759.64 1933.52 2015.76 1965.72 1953.76 2051.96 1883.36 1829.96 1754.24 2010.68 2210.56 2099.48 2005.48 2037 1837.96 1693.92 1645.92 1620.96 1518.04 1520.76 1623.32 1650.32 1585.44 1526.72 1376.92 1256.92 1306.2 1491.48 1541.72 1560.92 1386.36 1587.76 1726.56 1838.48 1841.72 1800.24 1897 2007.8 1952.6 1894.8 1827.84 1815 1572.92 1676.36 1741.56 1752.6 1833.44 1962.68 2027.28 1751.6 1452.2 1462.12 1419.72 1123.68 983.52 1115.12 1012.04 837.6 766.72 848.24 891.72 987.72 1070.72 1183 1278 1319.96 1332.76 1292.2 1262.84 1188.84 1254.88 1256.52
4968.08 4982.36 5023 5053.72 5050.68 5050.76 5111.6 5108.08 5079.4 4908.56 4897.88 4865.52 4855.72 4835.2 4854.48 4798.88 4806.92 4850.56 4858.92 4818.84 4752.84 4722.84 4691 4669.64 4672.76 4692.84 4737.12 4742.6 4700.6 4676.04 4674.6 4665.28 4667.04 4695.32 4695.44 4710.76 4669.56 4692.52 4862.52 4809.16 4783.12 4821.96 4885.68 4856 5011.24 5013 4974.76 4797.88 5041.64 5047.52 4834.88 4697.68 4671.92 4686.48 4659.36 4605.8 4545.68 4523.52 4500 4503.36 4488.76 4471.2 4452.48 4419.92 4397.84 4376.56 4357.64 4336.92 4337.32 4380.88 4407.52 4456.44 4410.48 4442.88 4524.52 4626.36 4362.04 4425 4611.84 4662.6 4558.92 4358 4671.64 4841.08 4763.52 4653.24 4692.4 4578.08 4506.68 4416.88 4429.28 4366.32 4272.12 4250.2 4433.76 4552.72 4675.92 4654.56 4601.04 4629.64 4449.24 4367 4434.4 4570.72 4726.12 4612.6 4503.56 4530.92 4697.56 4519.84 4556.72 4621.96 4633.36 4470.6 4522.04 4536.88 4562.36 4610.72 4684.32 4712.32 4724.44 4683.32 4691.4 4705.16 4721.28 4700.68 4699.72 4678.08 4711.32 4708.4 4646.36 4618.96 4662.24 4597.12 4533.08 4511.4 4502.84 4542.48 4601.12 4587.48 4500.64 4530 4503.04 4505.16 4514.72 4534.48 4403.08 4426.56 4427 4446.52 4456.92 4466.64 4450.96 4406.96 4337.56 4380.8 4484.04 4597.6 4527.56 4404.88 4452.36 4366.28 4319.08 4267.48 4253.8 4255.12 4275.32 4234.44 4236.24 4224.88 4214.48 4216.24 4226.52 4218.28 4212.52 4238.56 4345.8 4467 4416.32 4399.48 4323.56 4247.92 4235.28 4220.92 4196.56 4244.64 4394.84 4393.88 4361.4 4415.04 4616.56 4578.88 4507.76 4539.52 4638.68 4689.16 4758.36 4674.64 4881.68 4843.52 4849.2 4834.56 4782.28 4683 4466.84 4331.88 4634.4 4395.68 4204.08 4093.48 3967.32 4152.48 4221.12 4249.44 4170.2 4410.48 4339.24 4201.04 3963.56 4001.88 4049.32 4399.76 4421.84 4193.56 3812.44 3715.4 3646.16 3651.36 3874.16 3880.2 3549.36 3829.88 3836.72 3857.4 3659.44 3576.8 3897.68 3896.36 3826.44 3693.24 3769.2 3940.72 3893.52 3817.04 3708 3645.2 3611.12 3616 3672.44 3593.76 3617.44 3616.52 3633.8 3641.64 3691.6 3680.24 3663.04 3642.32 3646.64 3851.64 3840.56 3662.72 3573.64 3499.6 3507.24 3454.72 3497.72 3471.44 3395.36 3346.92 3403.68 3428.72 3318.08 3382.72 3422.64 3407.6 3514.2 3578 3598.04 3490.48 3401.28 3174.88 3093.6 3123.52 3344.6 3345.72 3225.64 3082.32 3089.56 3017.96 3080.4 3008.92 2875.4 2846.24 2757.84 2811.96 2775.52 2729.56 2768.8 2810 2798.4 2849.88 2979.56 2955.48 2928.32 2926.96 2726.24 2721.36 2481.84 2369.76 2788.84 2914.32 2919.92 2945.6 3039.36 2787.52 2633.64 2537.72 2580.2 2603.2 2469.24 2415.8 2314.76 2111.48 2210.44 2145.96 2127.4 2068.4 2075.12 1915.44 1944.36 2126.44 2175.04 1849.76 1857.08 2120.32 2387.6 2384.84 2208.2 2170.56 1962.24 1784.68 1685.72 1608.4 1536.72 1615.6 1586.24 1568.32 1544.52 1493.64 1415.48 1306.72 1333.4 1351.6 1343.12 1484.48 1326 1479.68 1550.68 1617.68 1677.72 1718 1703.64 1909.48 2013.04 1936.32 1871.28 1715.24 1333.96 1795.96 1848.44 1800.44 1839.84 1924.56 2052.56 1864.2 1678.48 1692.2 1600.72 1270.92 1038.28 932.04 1034.28 1065.28 930.52 827 789.76 943.6 989.92 1009.48 1007.08 1043.44 1115.16 1105.44 1143.72 1118.08 1239.08 1329.92
4936.56 4926.84 4948.88 4962.44 4968.36 4900.36 4893.32 4956.28 4985.36 4900.88 5002.04 4948.2 4871.08 4838.04 4813.68 4778.08 4797.24 4791.84 4829.04 4849.12 4838.8 4789.12 4715.32 4663.64 4657.36 4704.12 4815.4 4921 4785.72 4724.44 4720.04 4707.88 4692.16 4690.2 4702.24 4706.32 4697.24 4699.88 4623.8 4645.28 4851.12 4838.76 4836.8 4782.8 4873.6 4887.08 4948 4817.56 4926.8 5020.36 4809 4738.44 4790.08 4758.08 4727.16 4671.68 4633.04 4616.92 4614.84 4602.4 4621.56 4573.44 4532.2 4488.44 4463.68 4449.16 4422.52 4390.68 4386.88 4376.12 4396 4421.16 4388.52 4384.12 4392.6 4423.04 4444.52 4583.96 4640.56 4678.6 4610.68 4374.12 4612.28 4724.2 4770.36 4784 4834.48 4653.88 4623.84 4585.92 4592.76 4499.32 4461.28 4353.48 4282.56 4341.56 4522.76 4593.56 4472.76 4575.96 4626.36 4342.24 4295.72 4342.56 4337.88 4454.16 4342.8 4471.24 4461.76 4415.88 4412.16 4480.44 4596.48 4462.16 4528.76 4557.08 4521.12 4515.52 4552.36 4633.12 4715.84 4731.04 4720.44 4724.2 4792.72 4738.16 4782.68 4715.08 4655.64 4666.84 4693.28 4673.6 4705.52 4688.84 4677.88 4601.64 4573.04 4622.44 4567.6 4557.88 4541.6 4551.28 4513.08 4486.96 4470.32 4436.12 4406.44 4425.72 4460.12 4471.68 4494.56 4487.6 4432.36 4369.84 4335.76 4332.24 4381.32 4466.72 4426.44 4421.16 4495.8 4403.72 4397.72 4320.6 4278.76 4298.76 4309.48 4247.08 4238.56 4229.52 4218.84 4213.92 4195.84 4199.56 4222.36 4256.8 4284.64 4428.44 4460.52 4447.72 4382.76 4333.16 4258.76 4198.88 4188.36 4196.84 4242.76 4311.04 4320.48 4351.12 4540.28 4585.32 4440.24 4471.6 4608.52 4714.96 4635.64 4592.76 4673.96 4723.16 4800.64 4685.4 4539.36 4589.64 4651.36 4606.28 4534.56 4446 4293.16 4331.6 4094.44 3975.36 3962.68 4180.96 4304.36 4388.24 4340.16 4212.64 3948.04 4138.48 4287.96 4410.2 4233.48 4023.32 3917.32 3806.92 3733.76 3756.68 4038 3853.8 3625.24 3931.8 4087.92 3968.12 3729.36 3597.44 3645.88 3622.08 3660.48 3706.6 3954.64 4011.76 3764.84 3575.24 3589.52 3625.88 3674.68 3758.84 3720.76 3674.16 3678.6 3697 3709.12 3687.4 3750.8 3699.8 3707.64 3674.84 3563.84 3630.52 3670.36 3568.72 3511 3518.84 3537.64 3512.44 3508.48 3438.08 3374.32 3468.28 3668.08 3623.84 3367.24 3355.16 3296.72 3273.28 3285.84 3390.4 3482.96 3401.16 3147.04 3072.36 3278.84 3363.96 3430.52 3341.56 3242.08 3281.08 3149.92 2992.12 3255.72 3162.28 3238.2 2961 2958.04 2870.72 2822.64 2772.2 2716.16 2754 2664.36 2674.88 2894.8 2953.4 2854.4 2948.88 2911.64 2803.04 2709.36 2388.72 2457.12 2567.08 2702.6 2882.08 3051.92 2845.88 2630.32 2538.36 2508.72 2601.24 2668.28 2566.48 2484.8 2466.92 2423.28 2192.24 2447.84 2480.96 2316.6 2183.52 2299.64 2323.48 2410.88 1959.56 2217.6 2251.44 2328.32 2355.12 2339.2 2428.96 2071.76 1854.52 1761.4 1647.04 1525.8 1482.32 1466.6 1397.12 1393.92 1337.32 1321.6 1308.6 1299.32 1256.32 1178.12 1201.2 1224.76 1269.28 1297.64 1392.04 1481.88 1567.88 1418.72 1759.96 1916.88 1921.4 1748.12 1441.56 1283.04 1753.16 1702.56 1807.88 1704.36 1750.24 1646.44 1513.52 1471 1732.44 1649.2 1296.84 1025.32 945.52 887.68 1004.96 1071.56 1018.04 794.92 962.52 915.32 890.04 883.44 885.04 923.08 1003.08 1016.52 1072.76 1189.24 1333.76
4887.76 4880.6 4890.36 5005.04 5037.64 4883.84 4817.84 4829.2 4827 4858.88 4948.84 5009.6 4923.16 4928.84 4912.32 4845.36 4805.6 4780.16 4803.8 4836.56 4868.4 4793.84 4753.32 4674.2 4665.52 4724.88 4859.6 4941.76 4817.76 4813.28 4838.32 4795.12 4744.6 4701 4695.24 4702.48 4702.32 4711.76 4635.44 4638.52 4746.92 4683.2 4731.64 4718.48 4907.2 5024.52 5026.44 4866.08 4725.2 4699.48 4701.72 4918 4920.6 4854.56 4802.4 4744.4 4693.6 4674.6 4779.44 4746.2 4755.76 4677.68 4712.52 4682.84 4617.56 4611.68 4573.56 4536.72 4488.84 4387.04 4339 4412.48 4472.76 4481.64 4506.56 4500.2 4463.52 4641.16 4746.88 4760.68 4666.64 4474.6 4384.64 4448.04 4595.8 4790.12 4812.84 4790.12 4746.96 4677.56 4679.72 4669.32 4686.28 4459.24 4500.52 4280.96 4283.52 4345.6 4535.52 4628.4 4647.52 4459.84 4278.72 4622.84 4499.68 4372.96 4420.04 4622.8 4577 4515.24 4421.28 4402.04 4491.08 4436 4480.96 4583.56 4612.8 4612.72 4604.28 4626.84 4658.28 4718.2 4740.04 4777.56 4798.72 4766.52 4790.72 4728.92 4749.92 4627.6 4626.6 4682.64 4740.6 4746.44 4742.12 4722.96 4678.56 4693.04 4632.2 4620.28 4654.84 4607.52 4526.72 4501.52 4498.08 4475.16 4458.2 4467.84 4471.48 4477.96 4506.56 4527.4 4490.48 4406.32 4392.68 4432.04 4431.72 4440.76 4412.8 4416.04 4453.12 4419.6 4364.08 4349.64 4331.44 4304 4308.88 4287.92 4353.4 4332.68 4274.88 4255 4211.48 4258.52 4239.28 4210.76 4213.28 4292.48 4513.64 4563 4484.44 4424.68 4295.56 4220.52 4217.08 4201.56 4305.16 4257.04 4279.24 4440.28 4407.36 4556 4468.4 4387.76 4523.68 4573.96 4502.16 4575.92 4774.2 4840.4 4786.08 4693.2 4527 4428.96 4428.76 4543.4 4495.2 4459.48 4646.96 4397.16 4325.36 4223 3931.56 3950.56 4161.8 4257.44 4255.8 4184.32 3975.04 4058.04 4370.52 4192.08 4053.16 3993.6 3973.16 3905.48 3968.48 3845.12 4037.48 3878.88 3924.8 3863.52 4008.64 3781.72 3681.6 3688.8 3542 3472.72 3529.88 3662.64 3793.68 3668.28 3579.4 3762.12 3801.76 3733.68 3746.4 3743.16 3854.52 3846.24 3831.64 3838.24 3807.08 3785.4 3839.76 3776.96 3745.72 3697.36 3605.88 3575.84 3507.44 3525.2 3499.24 3440.68 3387.28 3371.52 3358.08 3377.92 3448.04 3652.76 3603 3521.48 3588.76 3537.04 3429.28 3474.8 3260.08 3233.08 3331.28 3231.28 3104.72 3226.52 3391.08 3527.36 3545.52 3553.96 3424.64 3345.96 3157.6 3035.32 3282.8 3381.72 3135.24 3014.12 3237.72 3086.64 3189.68 3016.2 3051.6 2830.56 2954.8 2804.8 2702.48 2796.92 2701.64 2871.24 2786.76 2821.8 2814.28 2660.88 2505.32 2415.32 2614.32 2732.36 2840.48 2938.2 2881.08 2881.76 2679.68 2523.6 2670.32 2614.2 2571.84 2563.04 2468.28 2497.16 2471.24 2785.64 2411.88 2606.68 2490.36 2408.8 2143.64 2040.52 2311.88 2418.8 2364 2404.28 2423.72 2426.08 2105.4 1947.16 1733.68 1607.96 1553.68 1627.04 1551.16 1597.8 1491.4 1402.48 1475.36 1533.44 1439.28 1365.12 1281.8 1183.48 1161.08 1234.4 1227.12 1223.72 1228.36 1217.96 1231.28 1286.84 1367.84 1374.08 1326.08 1192.44 1174.36 1207.64 1423.52 1368.96 1414.36 1430.6 1340.12 1216.28 1228.76 1533.96 1527.84 1275.76 1030.32 945.24 871.52 862 909.56 807.08 763.08 992.96 849.64 814.56 808.76 800.88 810.48 828.8 966.68 1090.2 1213.2 1268.52
4865.68 4851.6 4834 4813.04 4793.48 4815 4787.32 4762.96 4752.44 4806.24 4825.08 4834.76 4853.24 4885.04 4886.44 4810.56 4764.76 4740.76 4880.36 4942.2 4929.96 4962 4887.8 4755.96 4661.56 4673.48 4774.32 4792.32 4809.88 4889.64 4923.4 4850.92 4784.96 4726.96 4671.64 4646.08 4639.24 4641.64 4610.88 4564.8 4623.72 4603.8 4632.28 4712.08 4740.76 4802.16 4845.64 4832.16 4737.56 4642.84 4595.2 4707.96 4699.64 4693.12 4759.96 4883.12 4850.44 4815.04 4739.48 4738.64 4858.2 4773.48 4636 4608.84 4641.16 4607.96 4583.92 4624.88 4491.32 4336.4 4468.52 4568.92 4674.48 4639.48 4748.44 4620.36 4706.72 4745.92 4854.88 4800.12 4707.92 4621.8 4469.72 4438.72 4501.52 4615.12 4727.28 4871.88 4798.64 4694.8 4844.68 4707.52 4782.48 4575.56 4643.24 4464.64 4370.52 4291.2 4238.92 4371.72 4371.52 4283.08 4330.6 4536.2 4776.68 4677.68 4640.56 4581.84 4688.56 4736.4 4529.88 4437.16 4419.88 4562.52 4533.44 4674.72 4804.88 4786.72 4723.68 4810.64 4773.84 4825.84 4864.68 4827 4679.32 4801.32 4816.72 4809.92 4703.6 4635.88 4611.92 4600.92 4634.12 4670.6 4674.84 4768.04 4689.12 4728.44 4707.4 4617.8 4640.64 4677.28 4574.12 4568.32 4482.92 4500.76 4597.68 4600.92 4553.16 4560.4 4538.92 4509.32 4457.72 4405.36 4379 4450.72 4484.96 4481.64 4402.16 4398.36 4485.04 4448.16 4422.56 4502.4 4448.08 4364.92 4308.84 4297.4 4438.04 4515.8 4461.96 4356.64 4329.08 4364.68 4346.12 4274.08 4212.04 4225.28 4305.16 4434.12 4453.32 4375.4 4196.32 4151.08 4161.32 4156.84 4173.04 4172.4 4189.76 4231.68 4406.16 4449.64 4490.64 4429.88 4347.92 4431.16 4550.32 4619.16 4729.56 4842.6 4862.4 4780.88 4773.56 4710.64 4534.2 4344.2 4376.24 4313.68 4220.4 4253.28 4218.44 4161.4 3928.6 4198.28 4170.12 4191 4051.8 3929.48 3845.48 3813.48 4059.84 4054.96 4249.36 4195.84 4127.04 4178.36 4099.36 3882.6 4144.12 3968.72 3882.64 4057.2 4019.36 3844.4 3709.72 3778.6 3668.6 3754.44 3582.28 3521.16 3496.48 3465 3662.04 3882.2 4080.28 3965.72 3817.76 3823.68 3845.6 3845.88 3851.16 3894 3905.04 3939.04 3911.32 3900.32 3922.48 3822.84 3659.96 3592.52 3568.84 3522.12 3555.12 3506.32 3389.12 3385.6 3431.04 3415.24 3646.88 3630.8 3606.96 3590.24 3570.32 3525 3462.52 3288.04 3317.16 3273.84 3228.88 3298.88 3397.16 3400.36 3512.68 3510.56 3513.76 3370.08 3425.28 3243.72 3064.88 3259.4 3230.68 3314.96 3148.08 3095.56 3333.56 3168.76 3193.88 3269.6 3214.2 2863.24 3098.72 2933.68 2788.32 2672.68 2568.2 2519.6 2591.36 2618.16 2689.96 2640.4 2749.2 2420.2 2532.84 2603.88 2694.32 2956.16 2925.68 2856.56 2721.6 2687.52 2607.24 2535.12 2510.4 2643.52 2689.32 2755.76 2697.68 2774.24 2462.88 2667.2 2424.12 2164.48 2246.08 2160.52 2227.48 2296.76 2352.8 2147.16 2095.44 2257.8 2181.56 1962.72 1852.8 1774.84 1761.68 1735.88 1738.72 1857.2 1688.4 1517.04 1404.8 1648.36 1588.44 1425.04 1360 1254.36 1218.88 1352.96 1375.88 1385.36 1424.72 1580.4 1579.88 1558.28 1493.72 1372.28 1446 1366.52 1366.92 1283.36 1112.56 1093.16 1176.6 1267.96 1162.52 1123.96 1198.88 1201.44 1245.2 1232.04 1150.72 961.96 900.44 806.52 864.6 858.56 658.2 712.28 787.92 789.32 781.48 772.92 761.12 758.76 750.2 758.92 862.16 996.56
4901.96 4968.96 4894.08 4803.92 4847.4 4845.52 4760 4729.6 4713.08 4694.2 4715.48 4740.24 4797 4839.4 4821.44 4777.04 4819.12 4732.56 4725.84 4765.44 4819.8 4925.08 4990.24 4895 4684 4645.04 4787.88 4768.68 4741.24 4833.44 4874.08 4796.12 4762.6 4770.88 4715.6 4696.64 4667.56 4615.92 4593.32 4558.24 4555.84 4567.28 4567.92 4586.2 4622.44 4684.92 4693.36 4747.68 4742.08 4653.36 4585.4 4642.76 4705.16 4690.92 4612.56 4657.88 4829.52 5090.96 4903.56 4975.52 4728.8 4649.16 4580.48 4504.64 4475.76 4428.96 4382.56 4354.36 4360.6 4421.24 4514.32 4562.52 4651.8 4681.48 4851.08 4774.36 4924.2 4908.16 4748.4 4712.88 4735.6 4643.76 4543.88 4631.96 4562.12 4461.36 4582.8 4728.72 4772.4 4886.2 4833.72 4830.08 4694.6 4621.64 4795.16 4628.36 4458.2 4460.88 4429.2 4368.44 4381 4419.12 4238.04 4325.24 4557.64 4770.52 4778.4 4586 4647 4771.56 4614.56 4583.32 4539.48 4479.68 4535.76 4612.2 4814.76 4787.84 4855.68 4743.08 4796.76 4786.32 4652.36 4714.44 4632.6 4633.16 4781.32 4836.2 4791.48 4686.88 4727.72 4636.84 4607.76 4602.08 4602.8 4573.32 4588.16 4587.76 4597.2 4615.44 4561.76 4538.56 4542.68 4478.24 4436.2 4452 4489.76 4528.08 4580.56 4611.52 4563.64 4501.84 4466.16 4460.56 4405.32 4449.36 4491.84 4510.4 4430.32 4437.92 4569.56 4539.32 4609 4422.68 4390.48 4632.64 4446.52 4355.88 4312.08 4393.96 4511.84 4499.72 4434.04 4471 4460.72 4400.84 4270.64 4234.4 4198.28 4316 4374.56 4267.2 4159.08 4158 4162.88 4169.48 4251.96 4266.2 4199.2 4174.56 4223.28 4285.2 4415.8 4442.8 4306.96 4519.28 4642.6 4674.56 4788.72 4839.64 4676.24 4714.76 4594.88 4602.4 4580 4381.96 4663.6 4717.72 4504.52 4298.6 4353.72 4190.52 4318.88 4100.48 4402.44 4459.96 4383.16 4196.2 3914.64 3724.16 3746.48 3946.8 4294 4371.2 4156.84 4220.08 4098.32 3969.8 4091.08 3982.24 3902.28 4127.84 3923.6 3795.48 3775.12 3793.4 3764.96 3763.12 3669.32 3699.76 3760.36 3613.92 3681.6 3875.04 4016.12 3917.32 3930.88 3854.76 3766.96 3681.2 3751.4 3792.48 3812.24 3888.96 3918.92 3920.4 3963.16 3918.96 3763.2 3706.68 3589.16 3584 3512.04 3452.6 3428.04 3482.8 3502.16 3437.64 3438.08 3535.12 3656.56 3642.04 3596.96 3508.96 3465.72 3380.04 3403.28 3403.6 3285.2 3548.96 3493.2 3505.4 3563.24 3530.6 3432.08 3321.28 3186.52 3088.12 3278.6 3432.08 3382.2 3556.36 3419.24 3131.64 3159.64 3396.76 3287.72 3362.6 3128.04 2909.04 3233.64 3219.28 3020.6 2940.32 2777.16 2810.28 2534.64 2446.84 2486.56 2371.36 2355.6 2638.84 2743.84 2794.84 2732.08 2763.8 2987.48 2968.52 2855.88 2723.64 2569.08 2610.68 2644.84 2808.4 2815.52 2817 2758.64 2669.72 2578.48 2519.92 2306.52 2201.52 2390.72 2308.08 2262.88 2220.72 2309.36 2254.2 1990.52 2034 2103.24 1899.88 1804.76 1789.2 1726.92 1711.48 1789.36 1727.28 1665.64 1564.52 1445.44 1582.6 1673.04 1599.24 1424.08 1327.8 1239.8 1223.96 1401.48 1448.56 1705.28 1936.92 1950.32 1883.36 1713.92 1931.56 1750.68 1877.8 1705.32 1426.6 1211.8 1127.32 1098.32 1594.52 1583.2 1308.6 1013.04 953.72 1012.8 1072.08 959.24 886.72 873.6 932.24 802.84 864.4 847.32 605.72 698.84 769.16 788.56 777.2 753.24 720.6 706.52 681 691.12 688.16
4966.68 5065.92 4975.2 4965.04 5082.6 4987.04 4860.32 4737.76 4692.56 4680.76 4676.12 4693.8 4705.64 4745.84 4735.96 4773.28 4796.48 4724.44 4699.04 4730.8 4808.16 4850.72 4751.04 4686.88 4600.84 4635.96 4762.28 4761.12 4792.24 4816.84 4815.44 4800.76 4789.68 4800.28 4778.92 4709.2 4709.52 4632.76 4553 4541.88 4527.88 4527.4 4516.04 4518.08 4531.64 4543.52 4581.72 4588.76 4571.36 4571.56 4543.48 4589.76 4670.52 4654.84 4575.64 4613.2 4759.12 5152.48 5256.44 4984.16 4706.2 4768.88 4862.8 4645.24 4571.24 4463 4397.28 4367.48 4396.04 4429.92 4443.6 4607.68 4724.4 4833.84 4859.44 4687.28 4632.68 4627.16 4676.32 4688.32 4657.6 4624.76 4597.24 4563.6 4544.76 4434.44 4449.16 4516.08 4636.28 4724.52 4699.04 4712.4 4614.44 4670.76 4606.24 4437.36 4635.96 4712.4 4686.88 4930.84 4772.96 4613.52 4430.4 4245.24 4268.28 4468.32 4618.76 4564.2 4472.96 4593.6 4707.6 4803.76 4692 4570.72 4579.12 4747.28 4585.68 4748.68 4741.84 4716.96 4716 4675.12 4624 4629.52 4565.44 4640.64 4601.96 4660.12 4706.96 4819.88 4753.52 4759.56 4713.72 4665.16 4591.64 4566.44 4554.68 4534.44 4552.28 4607.28 4563.24 4513.8 4530.56 4486.84 4557.04 4574.48 4557.28 4576.36 4584.44 4615.68 4574.6 4521.28 4497.72 4483.72 4436.96 4480.6 4498.92 4499.2 4505.08 4459 4563.08 4547.76 4637.64 4665.12 4503.48 4527.92 4516.6 4547.48 4395.28 4412.08 4304.56 4376.12 4469.44 4525.68 4537.52 4458.76 4316.6 4179 4169.64 4182.08 4210.36 4250.92 4250.6 4184.44 4188 4214.76 4257.24 4353.64 4331.92 4330.08 4279.2 4255.64 4350.92 4315.96 4291.48 4407.36 4535.32 4694.84 4759.24 4784.56 4589.84 4749.56 4636.48 4776.48 4657.84 4663.12 4677.68 4559.4 4694.56 4702.84 4526.2 4416.48 4207.08 4484.76 4322.12 4267.48 4385.24 4236.4 4104.52 3871.76 3772.32 3787.32 3859.6 3991.6 4084.56 4285.28 4224.92 4180.44 4224.64 4121 4048.76 4060 3928.24 3851 3955.88 3984.52 3963.68 3968.96 3797.28 3999.52 3762.84 3518.56 3554.48 3805.56 3913.2 3810.32 3871.12 3686.44 3704.52 3931.04 4019.88 3987.96 3937.72 3812.52 3744.8 3694.4 3741.8 3890.8 3979.44 3977.96 4040.16 3874.72 3550.64 3452 3536.6 3575.28 3516.64 3551.6 3532.2 3582.12 3721.44 3649 3641.04 3511.64 3513.2 3441.16 3483.8 3522.56 3432.68 3476.92 3563.36 3664.96 3501.76 3388.28 3445.32 3340.96 3352.88 3313.24 3465.96 3559.88 3505.04 3515.36 3271.72 3390.08 3314.68 3625.88 3608.8 3490.6 3201.6 2968.64 2987.4 3181.88 3395.36 3135.68 3117.32 2949.4 2823.68 2702.8 2575.08 2419.12 2467.24 2493.68 2815.04 2918.08 3011.48 2895.88 2895.76 2795.88 2677.32 2638.32 2659.48 2636.6 2741 2835.24 2850.92 2742.84 2593.8 2594.16 2657.24 2456.88 2374.16 2305.96 2276.72 2179.2 2132.52 2131.68 2120.8 2046.24 2149.24 1933.36 1991.52 1961.64 1781.08 1737.84 1815.08 1709.8 1789.36 1805.04 1787.04 1565.32 1584.76 1551.4 1772.72 1687.32 1718.44 1679.8 1497.76 1418.68 1469.68 1632.8 1841.24 2032.28 2125.96 2204.84 2155.48 1905.08 1857.28 2135.52 2009.96 1590.96 1600.36 1507.48 1091.12 1155.2 1149.24 1251.2 1177.04 961 846.16 791.04 770.88 737.88 746.52 850.88 805.04 730.44 852.12 787.56 616.8 669.68 719.6 754.36 750.12 736.24 715.44 689.24 668.64 673.32
4898.96 4948.04 4975.76 4878.92 4888.08 4932.68 4898.04 4805.08 4723.16 4678.16 4681.88 4674.48 4668.48 4689.84 4735.64 4843.84 4751.92 4693.44 4664.64 4658.12 4653.72 4647.72 4621.4 4596.68 4591.88 4690.76 4835.88 4788.72 4839.8 4864.08 4870.52 4801.24 4819.72 4786.92 4731.08 4661.76 4664.76 4625.32 4556.44 4579.8 4688.88 4655.52 4595.16 4511.76 4482.92 4538.64 4579.08 4587.6 4583.2 4554.44 4502.84 4509.76 4565.48 4549.12 4527 4535.24 4590.96 4719.76 4908.68 4801.56 4889.28 4790.08 4648.44 4658.96 4693.84 4717.08 4548.72 4515.72 4498.4 4451.24 4456.68 4452.16 4526.64 4633.16 4617.16 4733.2 4606.96 4603.36 4624.36 4632.96 4672.92 4660.28 4685.6 4640.76 4535.96 4455.2 4439.72 4451.28 4506.16 4568.44 4716.72 4823.24 4896.8 4770.44 4703.04 4601.52 4709.2 4669.36 4691.2 4776.68 4831.16 4703.64 4687.84 4552.16 4284.28 4227.88 4271.8 4325.04 4360.92 4513.92 4570.12 4708.8 4827.44 4707.68 4599.48 4715.16 4750.52 4772.36 4841.48 4835.16 4820.4 4684.56 4575.72 4552.2 4497.36 4573.72 4611.68 4540.36 4587.44 4793.48 4800.92 4782.24 4759.04 4769.24 4679.68 4616 4705.72 4637.88 4597.2 4658.12 4646.68 4631.04 4581.2 4570.92 4592 4650.4 4702.72 4715.48 4723.6 4711.56 4680.48 4633.76 4601.96 4554.16 4485.08 4569.28 4593.96 4600.88 4630.12 4512.48 4590.56 4614.64 4632.92 4556 4553.96 4619.04 4611.8 4475.16 4438.8 4470.32 4373.52 4338.84 4403.16 4442.44 4423 4422.72 4360.44 4269.16 4270.48 4183.92 4170.04 4191.36 4210.56 4193.76 4243.6 4377.16 4395.28 4360.28 4340.32 4308.04 4197 4221.04 4325.56 4388.04 4250.48 4470.16 4501.68 4596.24 4614.12 4635.04 4672.84 4581.48 4712.4 4742.16 4770.52 4715.72 4704.04 4584.6 4618.04 4686.4 4690.52 4545.76 4547.12 4401.6 4400.76 4325.4 4292.64 4259.36 4136.72 4047.92 4122.12 4156.4 4077.72 3938.12 3933.72 3969.44 4146.6 4324.28 4403.08 4298.92 4124.52 4108.96 3967.04 3964.88 4218.48 4219.08 4069.24 4123.52 4070.2 3916.4 3718.6 3631.2 3500.4 3790.88 3829.32 3632 3733.24 3854.84 3860.4 3848.92 4023.84 4101.52 4101.84 3937.88 3860.6 3786.56 3702.08 3724.04 3762.08 3849.28 4082.8 4106.48 3831.96 3508.04 3611.04 3709.64 3579.2 3468.28 3563.4 3622.72 3848.28 3848.16 3647.24 3629.04 3479.32 3526.36 3655.64 3550.64 3576.56 3731.72 3730.72 3656.96 3529.64 3461 3576.56 3400.32 3496.28 3327.28 3446.16 3606.76 3612.32 3448.24 3426.28 3354.12 3479.36 3579.76 3611.36 3386.28 3169.8 3163.96 3074.72 3267.32 3288.64 3262.24 3116 2963.84 2922.84 2735.12 2653.48 2556.96 2522.92 2531.64 2673.6 2844.04 2893.12 2941.84 2862.56 2790.56 2777.32 2742.56 2751.76 2684.2 2654.08 2862.28 2894.2 2795.84 2728.16 2702.72 2506.68 2367.64 2224.76 2112 2091 2027.04 1921.48 1918.12 1848.08 1913.56 2019.92 1918.84 1903.08 1910.32 1890.16 1805.72 1682.48 1733.48 1724.64 1758.68 1852.76 1743.16 1714.32 1718.84 1804.2 1791.12 1884.76 1852.52 1804.68 1531 1817.48 1816.16 1700 1851.32 1934.6 2216.72 2022.76 1843.56 1775.08 1852.92 1933.64 1810.88 1519.76 1408.56 1099.32 1038.36 1124.88 983.36 1020.32 1010.64 987.12 1010.72 954.88 917.52 823.68 703.84 634.72 627.16 635.24 622.88 581.6 575.88 588.08 618.04 636.48 664.52 681.52 696.24 697.52 683.36
4845.52 4854.8 4825.28 4791.08 4797.12 4827.56 4778.12 4749.64 4725.64 4728.12 4741.96 4697.84 4667.28 4726.52 4750.8 4813.84 4821.28 4751.6 4696.24 4682.08 4714.4 4676.44 4628.4 4591.52 4601.2 4687.6 4804.08 4726.6 4812.8 4769.48 4758.88 4713.04 4696.84 4701.76 4640.88 4582.72 4564.12 4550.76 4561.24 4662.08 4779.72 4857.4 4751.84 4595.64 4479.44 4541.56 4643.24 4749.36 4839.84 4712.68 4546 4505.68 4554.92 4541.76 4542.16 4644.64 4635.92 4646.92 4656.52 4693.52 4864.96 4811.92 4640.04 4562.24 4524.88 4576.84 4684.12 4840.4 4827.88 4614.6 4539.2 4489.72 4491.8 4611.4 4745.76 4718.04 4588.12 4564.64 4577.64 4589.6 4606.28 4642.72 4724.04 4710.16 4601.8 4548.84 4524.2 4471.92 4465.36 4555.6 4693.36 4780.96 4824.56 4834.32 4741.24 4677.84 4844.12 4793.56 4779.48 4707.88 4597.64 4542.44 4519.32 4458.8 4425.96 4290.16 4252.32 4233.68 4428.16 4556.4 4470.08 4609.36 4719 4749.2 4687.8 4681.4 4736.4 4807.96 4818.24 4843.8 4751.76 4634.12 4517.36 4465.28 4504.8 4530.04 4540.52 4562.32 4500.84 4635.52 4742.6 4728.96 4740.28 4687.96 4644.84 4602.68 4693.12 4747.16 4661.16 4591.6 4666.48 4744.16 4703.68 4619.76 4507.68 4523.48 4556.36 4592.96 4591.08 4600.36 4645.88 4695.76 4713.04 4694 4564.4 4733.6 4691.76 4694.28 4714.6 4578.6 4600.44 4668.4 4660.16 4583.2 4632.32 4676.92 4520.4 4455.8 4483.76 4469.04 4444.92 4332.76 4331.72 4347.2 4393.76 4435.6 4427.8 4328.44 4333.52 4248.6 4208.52 4161.68 4168.68 4173.76 4210.48 4318.48 4390.72 4401.24 4301.36 4210.72 4172.36 4159.4 4229.48 4265.64 4302.44 4364.52 4383.68 4485.12 4502.28 4492.24 4476.52 4511.8 4697.64 4685.2 4805.56 4805.4 4711.12 4649.92 4679.96 4545.36 4489.32 4497.16 4611.64 4550.52 4519.36 4423.6 4479.88 4333.2 4171.68 4222.04 4223 4356.12 4357.4 4155.64 4101.12 4073.76 4125.72 4144.76 4245.8 4303.96 4125.8 4031.12 3905.4 4027.44 4045.44 3960.44 3973.12 3868.08 4049.72 3913.6 3909.96 3818.52 3599.88 3561.72 3601.96 3630.76 3646.8 3657 3673.8 3687.84 3713.52 3723.92 3843.92 3905.84 3833.8 3771.88 3735.76 3682.72 3643.32 3623.68 3696.84 3842.68 3973.76 3599.16 3667.44 3777.04 3681.28 3558.32 3498 3653.8 3962.56 4067.76 3841.24 3800.16 3569.48 3546.16 3735.8 3694.68 3615.12 3753.8 3754.44 3658.08 3629.24 3738.48 3865.44 3701.4 3526.8 3569.56 3618.6 3649.68 3858.84 3662.48 3550.8 3510.28 3601.88 3609.56 3703.24 3510.84 3399.76 3164.48 3284.04 3333.32 3476.68 3277 3094.96 3159.56 3125.16 2894.52 2808.32 2746.36 2614.12 2553.88 2693.28 2694.76 2725 2662.04 2639.96 2570.36 2620.84 2746.72 2754.52 2703.72 2634.6 2667.64 2808.36 2897.64 2789.72 2644.72 2474.16 2429.68 2394.56 2210.8 2164.96 2062.92 1896.2 1784.36 1720.28 1741.52 1849.68 1772.72 1766.24 1780.44 1811.04 1790.52 1691.36 1664.92 1620.52 1645.24 1715.6 1712.84 1721.28 1772.6 1756.92 1766 1806.08 1816.6 1874.48 1740.28 1936.08 1877.4 1659.96 1712 1718.2 1888 1822.64 1695.92 1621.04 1714.08 1734.48 1733.36 1579.96 1412.76 1443.72 1347.04 1504.28 1286.6 1376.88 1467.2 1334.72 1293.68 1108 1067.92 982.4 827.68 752.6 763.32 718.96 674.84 688.12 670.88 647.24 598.44 549.04 540.68 533.72 557.12 578.84 577.8
4873.72 4865.52 4832.84 4777.72 4752.88 4743.48 4733.76 4721.48 4716.64 4718.12 4718.4 4706.92 4691.08 4699.8 4781.08 4718.16 4712.12 4659.16 4712.72 4784.56 4851.68 4817.44 4733.36 4620.4 4606.32 4614.08 4612.12 4625.32 4659.72 4639 4622.92 4591.04 4583.36 4553.28 4537.92 4514.12 4502.6 4502.24 4518.48 4589.96 4680.76 4726.08 4659.52 4555.12 4537.32 4465.16 4470.56 4569.36 4734.2 4742.76 4644.96 4520.4 4586.64 4660.68 4587.16 4624.2 4618.32 4688.84 4645.52 4647.84 4718.12 4717.64 4739.36 4702.32 4522.88 4477.2 4784.76 4959.8 5048.64 4918.52 4682.56 4560.72 4508 4566.68 4827.12 4811.16 4704.88 4637.96 4650.72 4665.72 4680.48 4660.2 4734.56 4757.84 4733.24 4642.44 4633.28 4543.48 4505.12 4491.48 4584.92 4635.2 4633.68 4742.24 4848.44 4885.88 4878.84 4830.48 4719.04 4878.88 4816.64 4606.6 4591.28 4548 4419.4 4374.56 4395 4193.04 4499.12 4500.36 4342.4 4384.68 4523.92 4660.4 4683.4 4609.16 4668.12 4709.56 4781.92 4709.04 4626.2 4558.8 4500.12 4466.8 4520.12 4678.2 4616 4488.12 4421.48 4451.76 4531.96 4772.56 4798.64 4704.8 4630.4 4568.92 4632.48 4659.84 4665.28 4631.76 4644.84 4634.76 4651.76 4568.8 4511.8 4498.72 4540.68 4584.2 4632.44 4661 4676.6 4709.08 4747.8 4739.8 4606.44 4822.84 4769.08 4728.8 4681.4 4561.2 4649 4729.76 4682.32 4610.44 4660.48 4653.96 4565.88 4493.36 4453.16 4424.76 4464.36 4378 4299.88 4343.6 4393.72 4408.88 4398.2 4401.2 4436.96 4396.24 4347.12 4273.88 4202.48 4240.08 4228.08 4222.72 4242.24 4283.44 4259.64 4210.08 4151.28 4161.96 4194.28 4232.36 4257.48 4335.8 4296.24 4335.8 4413.32 4420.84 4382.88 4423.64 4621.64 4705.84 4823.04 4812.76 4717.8 4758.12 4758 4653.08 4589.44 4418.64 4554.6 4480 4551.88 4577 4447.84 4342.92 4310.04 4190.48 4154.16 4222.2 4161.08 4107.84 3987.28 4122.6 4128.44 4143.28 4164.96 4283.08 4260.16 4091.72 4024.4 3926.56 3772.84 3685 3653.76 3642.48 3672.64 3658.12 3645.2 3641.04 3579.52 3426.8 3514.48 3554.52 3649.16 3686.32 3742.24 3772.04 3823.64 3917.64 3968.32 3925.44 3887.64 3871.96 3917.84 3998.24 3883.96 3840.4 3754.68 3703.6 3657.12 3695.16 3806.32 3844.28 3628.68 3580.08 3480.88 3545.68 3724.4 3876.4 3828.04 3660.88 3626.56 3643.68 3570.4 3718.12 3829.08 3758.6 3834 3754.32 3564 3586.72 3969.4 3758.52 4101.96 3762.92 3863.24 3891.36 4029.88 3976.44 3830.36 3909 3915.32 3733.28 3468.96 3467.84 3365.12 3361.28 3309.76 3572.36 3544.88 3479.64 3274.2 3260.44 3245.84 3096.4 2853.88 2747.96 2599.76 2583.08 2589.92 2483.6 2474.6 2479.92 2436.04 2402.44 2581.52 2784.88 2866.84 2865.28 2862.08 2743.96 2852.16 3011.64 2929.92 2721.12 2646.24 2656.4 2551.08 2357.32 2234.48 2181.32 2044.12 1846.96 1680.68 1738.32 1749.72 1653.48 1637.56 1793.8 1738.52 1659.92 1614.16 1580.04 1580.8 1697.72 1678.84 1762.4 1782.64 1785.84 1756.32 1660.08 1666.96 1619.04 1746.88 1680.36 1841.68 1879.92 1895.16 1624.28 1884.36 1856.92 1901.12 1696.68 1670.16 1592.68 1822.16 2211.16 2227.4 1922.52 1922.76 1720.04 1925.92 1737.28 1749.84 2045.24 1856.68 1681.72 1510.12 1288.28 1144.6 1168.68 1217.52 1129.52 1043.8 917.36 1067.72 1004.08 946.08 832.12 736.24 662.6 597.6 576.56 553.68 545.64
4953.32 5091.32 4983.4 4878.72 4817.52 4761.28 4775.36 4786.36 4749.32 4724.28 4712.52 4701.76 4708.32 4694.92 4664.28 4655.92 4649.36 4660.96 4747.44 4772.4 4791.68 4770.72 4728.28 4612.04 4596.64 4646.2 4608.48 4574.2 4580.96 4560.8 4541.16 4537.92 4536.12 4518.44 4504 4509.84 4495.12 4485.56 4488.36 4540.2 4630 4587.52 4574 4529.84 4598.76 4471.12 4444.96 4445.72 4457.92 4467.76 4468.96 4475.2 4450.56 4462.48 4456.52 4459.36 4450.36 4425.16 4433.36 4474.72 4497.92 4476.48 4471.28 4540.44 4466.04 4469.2 4717.04 4945.24 4889.12 4860.36 4756.76 4720.88 4596.64 4550.04 4541.4 4573.48 4660.32 4701.16 4907.16 4868.68 4733.56 4773.24 4699.44 4683.2 4704.36 4749.76 4764.76 4643.6 4596.28 4501.68 4510.32 4548.8 4569 4621.6 4769.48 4907 4903.96 4901.52 4867.28 4899 4712.76 4820.4 4630.96 4396.48 4307 4595 4382.08 4163.56 4239.44 4245.68 4510.04 4522.96 4442.16 4481.48 4654.68 4797.44 4839.52 4664.12 4760.6 4810.8 4745.6 4633.84 4561.8 4508.88 4584.28 4705.56 4745.84 4710.64 4542.4 4363.28 4518.4 4592.6 4667.88 4659.12 4568.44 4493.84 4599.52 4531.2 4559.64 4563.56 4555.64 4562.04 4563.2 4532.92 4511.68 4507.48 4559.36 4662.84 4657.96 4633.84 4639.44 4712.96 4834.96 4794.72 4780.2 4763.6 4853.16 4755.88 4651.48 4664.36 4703.12 4699.8 4670.48 4652.6 4613.72 4663.76 4660.12 4539.04 4493.96 4476.24 4418.08 4406.92 4337.88 4357.4 4383.56 4365.52 4419.04 4496.72 4433.8 4399.04 4342.64 4268.88 4212.56 4197.48 4185 4164.12 4165.56 4183.48 4220.4 4170.28 4152.64 4227.04 4255.56 4271.8 4270.88 4305.36 4382.96 4349.52 4416.96 4461.12 4409.64 4359.48 4414.6 4607.76 4695.12 4733.6 4600.24 4509.8 4515.12 4480.68 4393 4357.88 4255.48 4503.32 4406.28 4639.2 4490.88 4397 4464.56 4342.12 4283.64 4277.32 4232.4 4126.96 4003.28 3991.24 4042.44 3985.68 4086.92 4148.08 4312.2 4483.28 4395.72 4341.12 4203.4 4007.04 3927.08 3833.48 3813.08 3609.76 3517.96 3508.16 3518.04 3508.36 3486.48 3476.96 3435.64 3492.6 3563.56 3616.76 3664.84 3793 3862.2 3836.2 3875.96 3935.8 4004.48 4147.36 4177.16 4097.88 4104.64 3772.24 3603.2 3585.2 3725.8 3826.12 3728.24 3673.04 3586.84 3499.32 3500.8 3621.4 3779.4 3727.52 3824 3693.48 3615.04 3691.72 3816.88 3763.84 3643.68 3449.24 3301.96 3283.76 3314.28 3260.88 3456.24 3679.4 3621.12 3348.12 3204.12 3712.68 3840.28 3687.6 3994.16 3791.12 3654.12 3933.32 3661.84 3560.64 3560.64 3703.2 3390.92 3304.2 2859.76 2841.24 2900.68 3100.2 3001.56 2890.92 2724.44 2771.96 2822.12 2704.84 2429.92 2314.16 2387.84 2357.28 2611.52 2929.04 3136.16 3020.12 3127.72 2949.24 2923.48 3113.52 3129.8 2931.92 2813.8 2585.8 2334.36 2232.72 2078.4 2029.4 1967.6 1943.68 1828.84 1608.08 1705.32 1600.44 1605.32 1602.88 1609.08 1540.92 1594.72 1659.04 1661.84 1642 1704.12 1733.72 1764.48 1769.96 1779.64 1759.92 1639.88 1646.64 1638.12 1682.72 1736.44 1671.68 1730.12 1547.08 1791.92 1794.28 1894 1772.4 1686.92 1540.56 1919.48 2492.4 2508.52 2151.64 2015.8 1855.52 1803 1738.36 1550.56 1797.4 1664.48 1519.88 1619.84 1696.52 1638.16 1589.84 1831.76 1791.8 1460.8 1177.6 1414.16 1218.4 1172.52 1058.36 974.92 938.76 829.08 718.76 617.16 605.24
4855.44 4927.44 4984.04 4963.04 4883.8 4788.2 4928.72 4976.96 4898.8 4843.52 4770 4732.92 4690.88 4662.32 4650.28 4655.6 4653.6 4655.68 4727.8 4797.8 4843.88 4905.96 4774.6 4639.6 4589.16 4582.36 4613.52 4698.44 4677.92 4625.08 4573.12 4556.88 4535.4 4525.32 4523.4 4510.2 4500.6 4509.16 4569.64 4587.28 4542.2 4493.4 4508.88 4534.08 4505.76 4509.2 4571.4 4490.08 4572.32 4607.08 4506.64 4472.2 4461.44 4433.24 4413.12 4408.16 4420.96 4423.04 4417.04 4391.6 4389.64 4381.8 4375.6 4391.4 4473.92 4545.32 4634.04 4729.12 5008.4 4847.6 4810.32 4801.56 4861.6 4679.28 4609.64 4731.64 4629.92 4665.2 4707.76 4821.56 4807.52 4805.76 4734.56 4750.28 4715 4717.88 4744.8 4766 4697.12 4628.36 4529.04 4597.52 4586.4 4601.32 4662.56 4742.68 4910.96 4940.12 5114.16 4895.24 4854.64 4698.16 4666.36 4538.08 4419.56 4354.32 4284.52 4236.48 4175.4 4126.48 4210.36 4328.12 4410.68 4533.04 4528.72 4683.6 4882.72 4864.04 4860.84 4806.92 4761.56 4847.56 4691.36 4689.92 4726.36 4715.56 4649.16 4539.16 4478.96 4374.96 4399 4527.44 4713.8 4594.04 4435.08 4547.88 4669.68 4535.24 4490.88 4582.12 4608.92 4632.12 4602.4 4634.04 4574.2 4536.72 4598.72 4558.64 4617.28 4666.56 4755.2 4766.72 4715.88 4828.12 4898.96 4881.92 4860.4 4783.44 4732.24 4736.44 4618 4658.12 4617.2 4584.28 4571.48 4634 4656.92 4597.28 4556.24 4579.36 4637 4422.96 4399.84 4331.6 4376.96 4409.32 4377.84 4442.08 4416.4 4385.76 4382.96 4421.04 4322.28 4298.76 4296.6 4253.72 4204.28 4206.2 4348.84 4405 4165.84 4190.36 4306.76 4332.24 4299.44 4265.4 4367.44 4442.24 4425.52 4439.28 4383.72 4373.68 4318.8 4338.68 4487 4610.64 4494.84 4620.6 4604.88 4576.16 4519.64 4520.6 4380.96 4204.92 4268.84 4525.8 4404.76 4392.68 4328.88 4382.56 4316.12 4151.96 4185.84 4138.88 3968.16 3909.8 4071.64 3934.44 4108.88 4237.2 4188.84 4400.24 4508.56 4446.92 4221.92 4255.6 4032.12 3860.6 4282.76 4125.72 3962.36 3908.68 3882.68 3860.04 3665.04 3712.28 3563.64 3507.28 3427.64 3396.16 3416.36 3427.32 3558.52 3609.88 3787.12 3928.96 3818.48 3909.88 3923.76 3872.88 3838.36 3817.16 3853.08 3736.48 3642.88 3674.28 3636.24 3557.6 3514 3469.36 3464.88 3475.96 3504.64 3538.2 3503.92 3496.32 3562.84 3629.12 3621.36 3593.28 3435.48 3559.2 3450.28 3541 3313.56 3247.32 3548.64 3414.12 3181.24 3167.96 3008.12 3267.96 3078.48 3467.04 4025.64 4091.64 4197.6 4067.6 3569.08 3834.52 3831.44 3839.36 3692.72 3826 3347.52 2956.72 2728.72 2969.2 3365.84 3210.84 2979.04 2918.6 2899.24 2789.6 2602.32 2323.76 2456.8 2411.72 2529.28 2635.48 3059.12 3176.68 3145.68 3117.88 2938.32 3002.56 2914.08 2864.64 2485.96 2295.24 2051.16 1949.32 2015.36 1933.24 2002.32 1733 1773.68 1609.8 1477.12 1525.16 1549.2 1498.36 1564.16 1610.96 1657.12 1697.88 1664.36 1696.16 1681.4 1742.12 1895.36 1819.84 1747.88 1751.96 1768.92 1723.48 1634.32 1597.2 1500.08 1487.96 1735.84 1511.28 1545.76 1712.4 1829.68 1747.4 1626.8 1469.56 1649.6 1960.8 2154.08 1902.68 1776.24 1679.64 1765.96 1658.76 1475.48 1418.56 1546.92 1780.92 2108.4 2065.96 2276.36 2014.08 2115.08 2103.72 1870.56 1494.68 1621.4 1561.68 1475.64 1244.44 1146.64 1432.84 1250.16 989.88 915.36 707.8
4916.48 5010.72 4948.88 4841 4827.96 4870.12 4951.72 4965.44 4932.96 4884.08 4840.64 4906.88 4865.56 4736.8 4677.56 4677.88 4669.72 4657.4 4636.2 4627.68 4666.32 4664.88 4622.56 4637.24 4676.36 4749.96 4735.32 4677.44 4777.08 4788.08 4694.16 4675.72 4592.28 4578.48 4540.24 4515.64 4498.12 4503.24 4575.12 4576.04 4541.12 4508.88 4658.12 4774.68 4793.6 4608.92 4536.16 4621.04 4700 4815.88 4831.8 4777.12 4708.88 4758.64 4638.36 4613.92 4636.12 4740.6 4572.16 4495.08 4514.04 4536.56 4402.08 4494.96 4511.08 4673.76 4754.8 4850.64 4812.52 4790.4 4693.4 4687.12 4757.08 4789.68 4739.16 4880.68 4745.56 4646.76 4664.72 4682.88 4787.92 4876.24 4883.04 4815.96 4734.48 4734.4 4734.04 4652.6 4608.16 4634.12 4587.92 4653.68 4635.72 4621.4 4629.48 4677.72 4759.52 4887.72 4918.08 4916.6 4925.88 4840.64 4711.56 4554.56 4485.44 4549.6 4455.04 4340.44 4284.84 4188.36 4189.88 4239.92 4220.96 4307.84 4525.84 4634 4865 4712.12 4747.96 4714.36 4732.44 4722.16 4778.92 4754.44 4652.48 4802.6 4742.72 4569.6 4462.68 4317.64 4278.44 4554.24 4665.72 4587.04 4355.92 4421.6 4434.36 4403.28 4500.28 4694.8 4674.16 4636.52 4647.96 4650.6 4623.08 4560.4 4519.64 4544.56 4577.76 4607.44 4663.52 4741.76 4715.08 4792.88 4891.68 4942.68 4832.92 4856.12 4704.44 4665.32 4736.28 4696.96 4790.88 4698.36 4634.48 4564.24 4545.2 4543.08 4582.2 4591.48 4625.44 4546.68 4419.52 4347.64 4328.56 4321.76 4332.84 4375.36 4391.8 4404.52 4372.24 4341.8 4354.8 4451.96 4370.36 4337.4 4315.08 4315.24 4195.36 4296.32 4184.52 4129.64 4296.72 4345.8 4411.84 4433.84 4338.84 4486.2 4558.32 4554.96 4438.08 4352.48 4331.76 4295.28 4272.2 4336.24 4358.2 4428.12 4582.08 4509.76 4471.12 4404.48 4385.64 4407.64 4233.28 4190.04 4160.24 4117.28 4117.52 4243.8 4213.64 4194.4 4164.16 4166.64 3964.96 4147.44 4079.16 4114.36 3996.08 4176.08 4422.84 4363.6 4342.88 4202.52 3933.32 3898.28 3924.88 4280.8 4296.84 4353.56 4224.52 4229.96 4252.72 4120.12 4054.84 4021.64 3948.16 3802.56 3705.52 3593.68 3536.64 3466.32 3412.92 3424.56 3519 3691.64 3744.92 3940.36 3946.08 3971.04 4094.28 4037.16 4147.8 4139 3942.12 3810.36 3656.08 3600.8 3563.12 3513.84 3492.44 3502.8 3541.64 3618.88 3617.28 3593.16 3538.64 3530.48 3473.72 3466.12 3305.84 3243.88 3327.36 3100.52 3078.08 3124.16 3052.24 2998.68 3189.88 2939.08 3021.72 3018.64 3078.84 3481.12 3407.4 3207.64 3405.56 3355.04 3467.12 3930.56 3885.8 3640.68 3351.44 3888.28 3405.16 3035.88 2576.08 2781.36 2910.52 3366.76 3249.52 2922 2914.68 2663.32 2687.68 2513.56 2350.16 2549.28 2336.88 2529.44 2745.24 2886.36 3126.24 2739.68 2636.6 2616.08 2500.6 2462.16 2381.2 2246.48 2160.8 2069.96 1871.36 1800.96 1663.04 1609.72 1443.6 1485.44 1727.32 1825.76 1765.04 1670.16 1707.32 1623.88 1690.56 1713.24 1648.64 1650.56 1674.84 1785.24 1810.08 1661.32 1845.96 1951.28 1860.16 1725.44 1951.72 1941.52 1798.8 1555.64 1463.04 1444.92 1513.2 1765.64 1711.16 1800.68 1603.36 1537.4 1806.96 1735.28 1711.56 2015.04 1541.88 1668.04 1758.08 1429.08 1489.76 1760.52 2106.88 2173.2 1939.84 2105.2 2314.88 2331.28 2260.76 2246.6 2308.44 2135.32 1909.88 1987.32 2047.64 1929.04 1793.24 2041.44 1671.6 1342.88 1052.8 1003.4
5035.36 5055.16 4938.68 4843.32 4954.88 4951.88 5016.72 5034.52 5009.88 5004.16 4900.76 4814.68 4876.36 4822.32 4756.08 4743.68 4713.28 4714.32 4695.8 4668.68 4640.88 4626.92 4642.08 4690.12 4762.76 4926.36 5045 4828 4785.64 4820.96 4807.96 4789.92 4745.2 4637.52 4566.6 4529.2 4511.6 4485.32 4498.68 4505.08 4488.52 4490.52 4507.76 4526.2 4516.36 4477.68 4488.4 4521 4582.12 4633.28 4654.56 4619.6 4619.56 4623.48 4657.2 4706.2 4780 4797.52 4756.08 4713.56 4729.92 4647.16 4483.92 4682.4 4663.16 4632.68 4749.72 4875 4836.72 4951.88 4932.04 4885.68 4763.12 4736.24 4669.04 4774.32 4739.08 4778.48 4737.96 4758.8 4709.72 4773.68 4878.24 4921.72 4811.52 4752.68 4722.12 4596.04 4607.52 4710.56 4661.28 4709 4739.96 4711.56 4707.24 4683.8 4707.12 4744 4773.88 4733.92 4815.84 4972.68 4916.4 4748.92 4707.4 4759.48 4789.08 4564.2 4445.56 4323.72 4205.8 4228.36 4335.92 4230.04 4331.92 4517.72 4705.16 4654.84 4679.24 4595.12 4534.12 4572.84 4579.28 4665.72 4725.92 4654.88 4813.4 4754.76 4738.4 4515.08 4285.6 4392.56 4545.96 4497.16 4506.88 4510.52 4427.8 4409.76 4434.92 4551.8 4734.4 4751.52 4679.72 4636.88 4627.68 4578.8 4523.96 4548.52 4580.56 4621.2 4656.2 4708.84 4773.44 4837.04 4857.48 4899.16 4741.24 4814.16 4753.12 4816.24 4766.44 4767.08 4701.32 4678.04 4612.12 4549.28 4549.32 4524.68 4483.28 4462.8 4473.44 4515.92 4429.92 4372.12 4348.24 4340.04 4427.92 4425.52 4462.92 4450.68 4394.24 4396.76 4367.2 4425.56 4379.48 4299.48 4263.64 4271.12 4177.92 4144.8 4119.92 4162.68 4338.88 4348.64 4516.6 4433.6 4465.28 4428.88 4356.28 4427.8 4447.68 4407.28 4311.28 4277.28 4259.08 4226.56 4248.48 4280.36 4315.84 4379.2 4474.08 4469.28 4510.08 4323 4454.12 4463.84 4302.32 4383.32 4260.24 4175.96 4213.56 4165.04 4117.12 4110 4177.68 4299.64 4277.28 4298.04 4073.48 3964.48 4292.16 4247.16 4110.16 4259 4233.84 4263.88 4222.36 4281.64 4390.24 4191.96 4260.64 4243 4173.64 4060.24 4241.44 4209.56 4384.68 4262.64 4236.92 3934 3772.72 3687.24 3546.84 3481.2 3420.32 3502.4 3643.2 3807.8 3892.32 4062.48 4146.08 3999.8 3871.16 4048.08 4066.36 3928 3815.2 3817.2 3736.16 3658.4 3606.32 3664.08 3804.32 3781.28 3809.56 3632.8 3411.16 3387.12 3289.68 3316 3389.72 3443 3481.76 3354.44 3239.56 2977.24 3091.2 2823.12 2769.44 2703.36 2836.6 2996.04 3240 3265.72 3394.44 3092.4 2936.96 2886.72 3209.32 3160.36 3403.6 3537.16 3387.6 2980.2 3310.36 3221.8 2730.44 2518.32 2913.4 2919.4 3120.92 2963.08 2685 2531.08 2437.6 2188.44 2364.52 2444.4 2246.2 2229.68 2513.08 2563.16 2749.84 2548.12 2512.68 2591.8 2638.76 2637.48 2640.52 2569.04 2447.96 2311.4 2085.64 1762.6 1568.44 1568.56 1494.44 1814.76 2092.8 1961.8 1790.84 1665.52 1811 1827.12 1854.92 1884.12 1850.08 1725 1679.44 1719.76 1732.28 1572.36 1691.04 1661.16 1559.12 1491.52 1471.36 1654.4 1630.24 1474.72 1434.84 1358.96 1653.8 1751.2 1587.64 1678.84 1477.36 1608.76 1793.16 1761.44 1609.92 1496.92 1521 1703.96 1620.92 1318.48 1787.24 1887.12 1889.48 1946 1739.2 1819.64 2017.28 2298.32 2162.76 1826.92 2040.52 1905.08 1757.2 1804.24 1900.76 1948 1995.24 2009.96 1619.08 1432.88 1226.08 1065.32
5198.16 5136.56 4981 4925.28 4989.16 4997.64 5008.96 5060.76 5020.28 4911.88 4848.16 4805.28 4788.56 4789.8 4775.12 4760.08 4744.16 4853.36 4883.8 4796.04 4736.36 4707.28 4686.36 4723.8 4791.88 4951.52 5157.52 4953.48 4827.24 4768.96 4876.32 4849.44 4749.92 4683.56 4617.08 4565.36 4533.24 4501.16 4474.2 4492.12 4497.92 4490.84 4467.24 4457.72 4460.52 4466.96 4464.68 4467.56 4486.56 4529.64 4575.68 4552.56 4519.4 4526.28 4551.48 4577.68 4604.8 4620.36 4585.76 4560.44 4545.12 4493.92 4567.04 4684.68 4594.2 4586.6 4667 4802 4828.44 4882.32 4984 4914.28 4904.56 4797.8 4682.36 4807.32 4729.12 4725.76 4725.36 4765.32 4844.8 4715.2 4752.88 4773.72 4889.68 4847.2 4749.24 4595.6 4622 4707.12 4726.88 4797.28 4771.4 4791.8 4864.8 4817.8 4737.08 4703.04 4653.52 4645.76 4705.64 4845.36 4950.68 4860.28 4964.48 4975.96 4954.96 4828.44 4576.52 4506.36 4433.28 4286.16 4254.32 4265.12 4426.96 4603.28 4620.76 4583.04 4644.56 4731.92 4633.2 4509.2 4515.64 4535.44 4506.44 4531 4601.6 4785.48 4789.36 4629.44 4379.2 4348.4 4547.36 4634.72 4621.72 4688.76 4570.08 4507.16 4497.12 4524.28 4579.88 4651.68 4744.88 4690.64 4604.08 4592.32 4535.52 4571.88 4625.96 4738.96 4670.84 4685.64 4721.44 4718.6 4820.96 4790.44 4695.36 4820.96 4872.6 4778.96 4709.44 4714.12 4643.24 4649.84 4599.44 4573.92 4667.4 4640.32 4575.04 4511.96 4483.6 4430.44 4403.2 4366.48 4341.12 4340.76 4417.6 4416.12 4513.8 4579.36 4503.8 4473.6 4440.92 4383.16 4331.6 4312.44 4230.8 4222 4225.16 4202.36 4119.68 4221.04 4338 4317.4 4471.24 4479.76 4525.92 4382.2 4307.12 4247.56 4235.84 4308.24 4360.36 4295.68 4269.28 4249.56 4198.6 4199.56 4209.08 4330.4 4347.68 4361.8 4441.28 4407.6 4372.96 4305.84 4281.32 4396.56 4391.92 4343.24 4176.12 4271.96 4272.08 4235.48 4207.68 4132.28 4103.16 4091 4031.24 4023.96 3968.16 4121.52 3982.6 4161.48 4319.28 4238.32 4086.04 4146.28 4089.2 4061.48 4050.52 4195.08 4200.44 4110.88 4369.4 4328.68 4289.08 4265.84 4241.96 4188.64 4217.32 3855.36 3686.44 3648.72 3484.8 3494.4 3439.68 3508.44 3618.64 3744.2 3894.92 4038.48 3867.16 3738.08 3819.4 3800.16 3858.88 3776.4 3818.96 3754.28 3752.84 3786.2 3861.56 3841.36 3845.68 3975.36 3677.16 3498.2 3302.28 3223.08 3436.84 3523.72 3569.44 3536.68 3427.8 3243.64 3111.96 2892.24 2834.12 2712.56 2553.36 2754.28 3118.6 3189.68 3190.96 3090.04 3081 2699.56 3230.6 2857.28 3051.8 3328.16 3190.08 2974 2617.96 3095.24 2561.64 2357.44 3266.84 3231.76 3374.28 2977.4 2614.16 2442.84 2610.48 2279.12 2177.56 2230.24 2049.8 2139.84 2253.68 2490.04 2531.96 2327.76 2509.68 2561.92 2700.44 2531.96 2529.52 2411.64 2409.6 2382.04 2186.76 1754.92 1580.12 1558.12 1627.24 1875.68 1960.88 1851.68 1715.56 1685.92 1799.84 1871.32 1844.6 1724.44 1696.44 1726.48 1661.08 1630.84 1600.08 1574.6 1642.8 1626.32 1553.08 1476.8 1442.36 1444.72 1428.88 1420.16 1357.88 1282.36 1441.16 1622.04 1494.2 1653.4 1435.68 1611.12 1659.84 1671.88 1485.16 1422.08 1625.24 1591.52 1373.72 1491.08 1625.68 1721.8 1718.68 1799.08 1615.76 1716.28 1715.44 1857.08 1811.12 1769.64 1848.44 1694.68 1702.56 1652.52 1738.36 1754.92 1660.4 1587.84 1476.48 1375.92 1194.96 1141.24
5129.92 5096.32 4948.64 4890.72 4930.28 4998.96 5105.6 5225.2 5066.64 4844.12 4810.8 4829.48 4904.56 4953.84 4927.28 4866.56 4837.96 4858.96 5062.76 4994.12 4836.24 4761.56 4749.24 4746.04 4802.12 4888.36 4991.08 4885.08 4831.08 4730.08 4721.88 4734.04 4677.16 4637.88 4589.4 4564.92 4521.56 4525.76 4518.32 4537.16 4518.8 4474.52 4478.16 4481.92 4490.32 4477.84 4466.84 4463.4 4468.28 4489.8 4493.72 4508.6 4481.68 4481.32 4494.36 4498.04 4498.72 4496.28 4486.88 4470.4 4434 4431.76 4468.2 4511.76 4516.52 4566.64 4617.76 4660.44 4775.24 4727.16 4752.28 4801.12 4918.76 4913.64 4786.48 4811.36 4771.4 4934.2 4924.84 4790.36 4774.12 4902.36 4941.12 4936.64 4780.16 4761.64 4709.28 4645.2 4726.68 4735.04 4797.76 4811.44 4854.84 4820.8 4864.08 4953.64 4838.88 4720.96 4636.28 4598.8 4668.6 4821.6 4975.44 5035.92 5054.36 4942.2 4924.16 4869.84 4644.44 4467.6 4448.6 4502.8 4428.24 4175.56 4430.24 4606.16 4496.76 4588.68 4742.48 4751.6 4814.92 4778.8 4658.68 4515.2 4494.04 4487.32 4483.56 4457.96 4739.96 4743.12 4533.68 4504.6 4673.24 4652.6 4811.8 4812.92 4669.04 4617.28 4631.24 4652.2 4615.56 4580.36 4620.36 4685.96 4632.84 4610 4534.4 4527.16 4567.2 4729.16 4746.2 4723.8 4692.16 4634.8 4621.88 4637.8 4703 4801.88 4953.4 4854.24 4822.68 4748.96 4681.64 4635.52 4604.92 4629.44 4656.56 4670.2 4628.56 4530.48 4496.48 4482.64 4437.44 4397.68 4380.16 4369.92 4361.08 4385.04 4434.4 4556.88 4606.64 4582.2 4578.72 4427.36 4312.36 4260 4267.44 4344.72 4406.8 4270 4126.16 4202.48 4274.64 4310 4471.4 4548.36 4556.6 4447.36 4399.8 4313 4196.96 4191.72 4220.44 4336 4280.2 4235.04 4313.84 4157.52 4121.6 4144.12 4196.76 4211.4 4271.8 4308.64 4298.84 4298.16 4368.4 4313.2 4403.32 4245.56 4300.84 4349.4 4334.32 4364.96 4118.16 4423.64 4322.2 4258.84 4309.4 4178.04 4064.32 3935.28 3997.44 4103.16 4260.52 4269.6 4152.24 4217.12 3974.36 4071.92 4015 4200 4341.84 4288.92 4276.92 4389.68 4368.88 4282.64 4101.12 4276.6 4361.84 4144.72 3959.16 3857.32 3589.96 3691.2 3501.12 3482.84 3480.24 3477.76 3545.88 3701.84 3712.92 3586.6 3630.68 3550.76 3589.28 3565.48 3667.84 3584.72 3588.16 3507.76 3570.4 3506.8 3527.96 3662.4 3648 3541.84 3427.76 3496.68 3709.16 3878.92 4005.64 4021.28 3763.96 3551.2 3247.44 3002.88 3226.96 3393.88 3200.96 2957.52 2759 2733.08 2645.6 2698.56 3067 2621.96 3073.6 2792.08 2978.12 3006.8 2656.44 3093.92 2575.8 2582.08 2455.08 2265.36 2442.96 2548.44 3166.36 3349.12 2932.24 2722.08 2741.92 2732.6 2365.68 2175.04 2000.56 1918.36 2136.24 2314.48 2353.28 2219.16 2298.6 2250.72 2499.04 2483.88 2271.88 2281.72 2463.76 2216.12 1917.72 1728.24 1566.6 1552 1588.64 1738.36 1830.12 1787.48 1673.16 1671.76 1780 1886.84 2017 1951.44 1790.56 1726.36 1625.6 1467.04 1726.64 1750.96 1643.6 1913.32 1671.96 1528.48 1494.8 1477.56 1618.76 1484.24 1536.12 1316.12 1407.32 1631.6 1425.56 1647 1433.8 1469.4 1452.6 1531.12 1285.4 1669.4 1613.6 1367.52 1434.2 1717.56 1689.72 1578.96 1685.28 1694.04 1523.12 1527.88 1537.24 1666.88 1667.4 1718.12 1814.12 1729.96 1730.92 1815.52 1884.28 1911.8 1785.72 1851.56 1809.28 1607.32 1570.04 1602.56
5046 5037.76 5026.76 4982.8 5094.96 5293.96 5294 5165.76 4978.2 4923.32 4883.28 4907.88 4950.84 5041.84 5054.16 4947.76 4931.92 4908.56 4905.72 4909.68 4924.28 4824.76 4715.68 4685.96 4702.68 4733.8 4753.88 4671.52 4693 4658.48 4653.32 4645.72 4613.28 4598.84 4578.44 4528.84 4516.72 4505 4506.8 4520.2 4529.68 4509.52 4499.84 4504.84 4499 4489.12 4474.96 4486.56 4486.48 4482.92 4479.48 4481.16 4464.48 4460.84 4452.32 4447.6 4439.08 4438.76 4439.28 4436.12 4419.64 4431.8 4449.44 4465.76 4489.2 4524.2 4555.92 4576.64 4607.96 4624.44 4703.52 4759.52 4792.44 4831.04 4918.24 4796.28 4763 4820.72 4877.16 4890.64 4846.04 4772.68 4878.16 5003.16 4873.08 4718.36 4702.08 4832.72 4794.52 4916.84 4860.88 4812.24 4850.16 4866.92 4931.6 5002.52 4938.64 4871.04 4660.68 4574.88 4592.6 4741.96 4849.48 4980.8 4948.52 4888.8 5011.2 4870.6 4815.2 4709.48 4570.52 4231.64 4232.92 4335.44 4256.64 4516.28 4431.28 4740.32 4615.2 4778.08 4814.24 4769.84 4687.48 4824.84 4489.48 4364.48 4474.84 4390.4 4566.8 4577.96 4510.56 4484.08 4671.4 4705.16 4767.8 4714.36 4673.24 4655.8 4650.24 4627.56 4656.16 4621.52 4575.6 4571.68 4625.52 4603.64 4557.48 4527.68 4565.56 4568.92 4566.68 4551.8 4507.16 4552.8 4605.88 4651.04 4736.96 4744.92 4668.12 4633.48 4689.12 4631 4607.28 4598.72 4622.96 4611.72 4649.88 4680.08 4570 4516.56 4564.92 4545.48 4434.48 4429.28 4418.48 4407.84 4379.56 4383.04 4400.8 4407.8 4382.6 4457.72 4495.4 4358.8 4329.96 4262.52 4237.44 4332 4349.36 4299.52 4215.56 4167.28 4296.4 4417.8 4450.4 4469.24 4490.16 4423.32 4465.64 4359.52 4194.2 4186.68 4162.28 4214.8 4276.24 4312.32 4242.32 4297.44 4293.68 4129.52 4099.92 4163.12 4178.12 4293.4 4263.32 4349.32 4340.36 4455.28 4501.36 4450.4 4450.2 4465.64 4459.88 4314.24 4330.72 4486.76 4298.84 4416.24 4313.16 4308.52 4368.16 4052.76 3916.68 4210.44 4246.92 4204.84 4251.44 4340.48 4117.68 3923.36 4174.12 4337.2 4311.32 4366.32 4221.24 4288.56 4375.2 4262 4264.52 4143.84 4267.52 4172.12 4142.44 3903.08 3724.56 3653.64 3551.28 3583.72 3573.2 3512.44 3442.32 3418.44 3468.6 3464.72 3448.96 3434.2 3434.12 3432.96 3428.56 3431.12 3429.16 3421.16 3416.76 3416.36 3449.68 3536.44 3580.12 3532.8 3462.44 3445.16 3456.56 3528.12 3636.44 3715.04 3676.2 3715.76 3653.12 3607.6 3628.12 3810.4 3717.2 3629.92 3331.12 3371.64 3148.4 2808.64 2492.6 2496.52 2670.08 2536.44 2916.64 2594.08 2693.32 2615.28 2423.48 2278.2 2115.48 2104.96 2135 2051.48 2677.96 2921.64 3421.56 3274.24 3122.88 2869 2515.92 2579.52 2244.48 2108.32 1927.16 2064.64 2135.8 2124.12 2064.88 2084.64 2172.96 2232.56 2204 2102.6 2359.76 2186.08 2081.16 1819.6 1721.32 1510.52 1775.44 1862.12 1741.4 1702 1648.16 1690.76 1760.8 1825.2 1913.36 1807.76 1627 1632.2 1539.36 1452.84 1490.44 1721.36 1556.64 1663.92 1513.04 1486.76 1469.04 1404.52 1435.96 1407 1331.08 1290.88 1451.6 1560.84 1466.04 1570.56 1516.32 1216.84 1372.96 1368.08 1378.28 1506.52 1362.76 1228.36 1530.52 1534.76 1552.84 1416.04 1465.44 1539.56 1508.44 1542.72 1464.52 1444.56 1529.44 1708.84 1713.52 1853.68 2123.92 2429.56 2691.64 2754.96 2503.48 2563.76 2644.96 1838.44 1956.64 1907.88
5076.48 5033.16 4923.64 4951.48 5032.68 5140.08 5149.08 5157.64 5253.52 5132.56 5028.56 5014.2 5017.12 5008.4 5031.24 4927.4 4921.48 4926.16 4855 4771.88 4803 4800.84 4799.28 4684.08 4636.4 4636.24 4634.36 4613.32 4624.12 4607.64 4610.28 4640.52 4649.16 4623.28 4619.6 4611.56 4548.28 4522.32 4515.84 4613 4656.28 4556.16 4526 4542.16 4525.04 4543.72 4503.28 4508.48 4532.52 4533.28 4550.36 4544.32 4495.28 4496.04 4483.56 4476.72 4480.24 4470.4 4492.88 4469.12 4454.32 4436.6 4443.72 4484.76 4498.16 4513.8 4534 4551.2 4566.4 4599.88 4640.56 4732.4 4828.44 4783.04 4778.08 4736.28 4767.32 4810.28 4942.92 5010.24 4958.96 4923 4795.04 4877.72 4844.08 5004.08 4741.88 4936.8 4926.52 4889.2 4866.44 4955 4935.56 4837.48 4984.6 4930.08 4945.48 4923.08 4793.96 4786.24 4608.12 4605.2 4996.56 5089.36 5075.24 5046.56 5046.88 4981.2 4657.84 4538.64 4284.72 4508.72 4638.68 4434 4167.8 4321 4404.2 4630.44 4716.16 4700.68 4703.6 4840.12 4834.96 4720.28 4757.2 4533.68 4397.16 4332.28 4573.8 4765.84 4388.76 4539.16 4748.32 4557.4 4691.36 4790.8 4695.6 4753.8 4674.72 4612.44 4584 4541.24 4470.72 4445.2 4468.4 4508.2 4571.44 4518.52 4455.76 4446.48 4471.64 4505.4 4526.56 4531.12 4495.88 4541.88 4563.96 4530.6 4492.52 4521.6 4583.32 4604.64 4603.48 4590 4501.48 4447.08 4365.36 4480.68 4363 4298.52 4402.48 4467.72 4412 4413.72 4412.72 4399.92 4379.68 4380.16 4401.64 4416.12 4336.44 4281.52 4343.32 4397.32 4328.24 4257.48 4260.52 4268.36 4318.6 4281.16 4230.84 4153.88 4213.88 4348.92 4346.88 4455.36 4503.16 4566.28 4541.2 4488.4 4271.16 4132.56 4201.96 4213.6 4170.64 4323.8 4347.08 4235.24 4136.88 4220.96 4190.36 4066.84 4066.32 4170.68 4250.72 4302.68 4323.6 4311.8 4490.6 4554.32 4542.24 4431.96 4555.2 4575.72 4360.32 4550.8 4484.8 4446.6 4306.8 4121.8 4065.24 4086.48 3909.92 4366.2 4331.8 4099.92 4382 4128.96 4184.04 4267.2 4001.8 4433.28 4296.76 4092.24 4339.4 4279.28 4265 4310.84 4228.16 4074.36 3900.72 3860.6 4105.36 4032.8 3829.76 3601.8 3605.04 3701.32 3719.2 3644.8 3505.24 3468.4 3449.48 3461.76 3432.56 3426.32 3442.44 3443.16 3434.84 3428.36 3424.64 3421.4 3420.92 3420.08 3434.24 3475.72 3463.32 3418.72 3417.84 3418.28 3419.64 3439.48 3509.24 3597.28 3685.56 3786.6 3840.64 3732.28 3599.16 3637.88 3369.64 3054.16 3096.08 2980.76 3238.76 3360.36 3030.32 2542.96 2847.12 2525.56 2250.28 2258.96 2185.44 2178.72 2632.4 2717.6 2618.6 2886.6 2762.76 2081.44 2745.92 3108 3115.32 2834.92 3383.76 3473.24 2914.56 2596.44 2545.28 2146.24 2255 2031.12 1992.32 2324.24 2105.68 2001.76 1965.12 2253.96 2330.36 2089.52 2201.52 2208.16 2032.36 1935.44 1840.12 1544.92 1924.64 2025.48 1772.4 1706.08 1731.48 1744.56 1946.56 1945.04 2025.96 2100.56 1821.48 1865.8 1773.84 1491.24 1413.16 1533.88 1399.08 1449.28 1446.12 1380.92 1346.28 1419.32 1402.12 1334.96 1353.16 1141.64 1097.12 1246.56 1193.12 1236.6 1213.24 1114.72 1274.52 1281.8 1239.84 1166.16 1149.52 1173.64 1224.12 1226.44 1307.04 1456.16 1650.44 1847.2 1744.2 1489.84 1601.16 1836.24 1687.64 1662.64 1707.76 2097.56 2122.28 2200.28 2621.12 3043.08 3085.64 2987.2 2612.36 2550 2532.04 2591.36
5026.64 4918.36 4893 4900.68 4999.24 5205.88 5279.8 5342.64 5335.04 5236.68 5351.96 5232.28 5084.4 5117.68 5149.52 4979.04 4947.84 4807.84 4831.88 4802.68 4709.84 4701.32 4797.44 4775.6 4694.04 4633.12 4630.36 4603.32 4645.16 4600.2 4582.68 4570.48 4588.4 4621.28 4647.08 4620.84 4577.24 4633.68 4613.68 4532.68 4553.12 4555.08 4588.6 4595.16 4625.84 4680 4615.48 4564.28 4584.28 4577.84 4601.92 4534.68 4523.44 4518.92 4541.04 4528.24 4529.12 4528.6 4543.36 4526.88 4540.28 4468.76 4467.32 4492.4 4499.08 4572.4 4649.4 4645.72 4629.44 4601.96 4680.2 4677.48 4683.92 4692.08 4690.64 4692.64 4754.04 4797.32 4847 4901.16 4990 5135.52 4934.72 4893.32 4962.76 4896.4 4872.28 4795.56 5027.56 4991.68 4998.12 5029.4 4983.96 4990.16 4884.76 4809.96 4734.88 4776.56 4862.72 4840.04 4820 4634.08 4817.56 5046.56 4951.96 4969.96 4957.84 4614 4578.48 4630.92 4347.76 4634.72 4802.72 4602.08 4486.84 4186.48 4281.32 4623.36 4590.36 4670.2 4690.56 4823.4 4820.84 4815.12 4521.84 4522 4630.52 4516.96 4383.16 4569.6 4242.68 4467.76 4697.44 4531.76 4530.64 4810.4 4527.72 4689.96 4651.36 4644.88 4620.12 4555.04 4432.2 4372.84 4351.92 4394.12 4457.72 4405.92 4388.4 4532.12 4576.76 4575.44 4577.32 4584.6 4512.04 4446.4 4522.84 4513.08 4468.68 4524.88 4566.52 4602.2 4607.52 4585.76 4467.6 4271.12 4263.88 4259.08 4254.36 4239.4 4261.64 4363.2 4404.4 4414.24 4409.24 4389.72 4376.68 4381.64 4392.84 4443.08 4455.48 4425.96 4397.96 4475.56 4333.08 4269.84 4282.04 4270.44 4236.64 4496.16 4536.44 4435.52 4217.36 4166.48 4178.88 4378.56 4520.92 4547.44 4485.08 4390.8 4309.28 4232.72 4122.64 4105.2 4111.2 4212.48 4281.16 4347.16 4280.48 4293.76 4259.92 4370.24 4116.16 4090 4037.48 4161.84 4288.76 4328.08 4367 4517.76 4631.76 4584.4 4657.8 4635.56 4472.48 4376.96 4137.44 4201.36 3974.96 3982.92 4148.36 4050.12 3829 4064.24 4192.76 4246.72 3893.28 4139.68 3892.76 4070.76 4056.32 4477.08 4002.32 4431.64 4369.08 4263.6 4358 4225.76 4099.48 4065.52 3803.2 3765.32 3853.6 4008.68 3802.6 3724.12 3780.68 3767.44 3813.04 3629.24 3523.68 3506.96 3467.56 3433.64 3433.88 3430.24 3432 3498.72 3452.96 3466.92 3449.84 3423.8 3425.16 3427.68 3426.32 3425.48 3422.96 3424.28 3423.12 3424.12 3421.56 3422.72 3426.04 3460.68 3528.72 3643.76 3720.88 3642.12 3451.76 3392.88 3382.96 3362.44 3267.76 3116.4 2758.2 2744.4 2558.68 3197.44 3454.4 3308 2892.28 2802.28 2764.84 2326.96 3064.12 3126.64 2754.96 2533.4 2423.36 2140.04 1909.68 1979.52 2285.52 2584.68 2428.08 3306.28 3294.04 3236.76 2754.4 2537.12 2769.56 2483.92 1793.12 2035.04 2332.76 2153.12 2116.44 1823.76 1953.28 1901.4 2003.28 1972.04 2206.56 2117.24 1751.52 1763.48 2035.6 1977.6 1900.08 1875.4 1870.36 1831.24 1902 1852.72 1965.6 1815.52 1776.28 1552.52 1702.48 1575.64 1284.84 1529.8 1350.28 1283.08 1241.84 1193.84 1163.92 1242.68 1349.08 1359.52 1175.2 1042.16 1074.24 1186.64 1112.84 1139.52 1249.76 1161.4 1079.04 1186.96 1213.24 1365.64 1629.08 1721.8 1733.4 1586.76 1633.96 1859.32 1877.84 1772.96 1545.84 1362.48 1701.32 1812.96 1570.84 1771.12 1961.92 2118.64 1759.68 1945.32 2152.36 2493.44 2566.08 2154.52 2486.72 2668.52 2736.56 2759.08
4968.28 4904.76 4893.4 4925.96 5022.44 5185.84 5318.72 5367.68 5221.84 5214.48 5231.28 5213.4 5227.16 5159.16 5059.48 4956.04 4777.12 4708.72 4702.04 4705.36 4674.68 4663.28 4660.68 4654.48 4647 4687.64 4708.04 4663.52 4598.2 4593.84 4574.6 4570.96 4565 4564.48 4578.56 4586.64 4618.4 4649.76 4606.12 4541.24 4583.32 4599.76 4593.92 4600.92 4639.64 4668.44 4681.28 4678.32 4672.96 4648.44 4638.28 4677.2 4648.36 4631.64 4649.36 4614.36 4621.08 4653.12 4674.56 4660.28 4645.96 4565.32 4562 4535.56 4569.44 4612.8 4722.2 4808.52 4726 4682.08 4625.76 4642.36 4657.24 4659.6 4665.68 4685.12 4734.28 4780.36 4796.44 4850.04 4969.56 4994.16 5051.96 4968.92 4934.36 5050.48 5129.44 4754.2 4900.76 5028.16 5016.96 5089.24 4990.36 4972.24 5084.44 5038.12 4876.04 4759.84 4727.4 4884.2 4915.12 4644.76 4627.92 4579.72 4655.52 4477.44 4383.68 4258.16 4206.24 4192.72 4291.8 4625.76 4687.84 4745.84 4510.24 4397.2 4195.56 4167 4322.16 4595.88 4613.84 4884.08 4685.44 4912.6 4849.72 4795.04 4604.88 4689.16 4552.6 4272.52 4758.8 4638.56 4681.76 4541.6 4455.64 4607.6 4473 4633.76 4704.04 4652.24 4624.2 4527.76 4406.36 4341.36 4304.44 4303.88 4309.48 4329.16 4393.8 4513.84 4562.24 4571.24 4563.04 4504.52 4361.08 4356.16 4413.92 4434.6 4493.24 4568.4 4586.56 4582.72 4536.88 4480.68 4361.88 4267.36 4252.16 4258.28 4258.76 4252.32 4239.64 4296.4 4333.68 4334 4335.64 4337.28 4358.2 4380.52 4400.4 4437.52 4455.32 4409.6 4404.6 4380.72 4298.76 4271.8 4273.44 4268.32 4229.44 4428.04 4507.64 4569.84 4461.24 4309.2 4132.28 4341.92 4593 4568.92 4322.88 4261.64 4302.72 4164.68 4235.2 4227 4195.4 4101.08 4192.12 4220.84 4296.84 4279.04 4254.44 4356.84 4271.44 4188.2 4118.6 4083.16 4085.6 4218.12 4315.68 4321.2 4500.24 4631.44 4529.28 4599.16 4563.2 4360.88 3996.48 3937.76 4032.88 4220.36 4235.8 4185.88 4203.08 3834.12 4035.44 4366.24 4009.48 3775.48 3906.68 3925.4 3850.8 3925.6 3997.2 4191 4194.48 4056.48 4316.68 4217.36 4172.16 3900.6 3764.44 3656.52 3690.04 3812.96 3847.44 3727.44 3701.52 3726.96 3777.08 3731.68 3585.76 3499.08 3474.04 3444.2 3423.24 3423.04 3426.24 3418.72 3428.32 3457.12 3449.36 3464.96 3446.88 3506.48 3495.48 3459.28 3426.92 3426.72 3426.72 3428.72 3430.48 3427.48 3427.96 3440.8 3481.52 3556.12 3707.6 3761.92 3537.84 3480.52 3394.72 3254.44 3249.92 2999.92 2804.36 3109.88 2884.96 3067.76 3446.2 3409.32 3428.2 3446.44 3304.76 2951.52 2557.52 2742.48 3322.72 3334.28 2508.28 2548.48 2089.04 2282 2299.36 2134.76 1988.84 2641.6 2801.36 3486.64 3209.12 3146.36 2612.12 2284.2 1886 2213.68 2472.48 2236.32 2017.92 1823.72 1656.32 1691.24 1704.2 1881.92 1796.64 1920.44 1784.32 1594.12 2029.68 1877.48 1844.56 1800.08 1976 1891.84 1806.2 1776.04 1867.32 1827.24 1560.68 1499.32 1363.44 1359.4 1210.2 1382.56 1347.68 1267.4 1303.4 1282 1197.08 1258.12 1134.84 1131.72 1093.4 975.48 942.72 1052.16 1074.52 1179.96 1249.08 1200.32 1214.84 1570.96 1570.32 1497.4 1612.64 1545.44 1614.36 1706.84 1716.8 1792.12 1815.64 1776.04 1554.28 1298.76 1623.24 1558.92 1432.68 1794.16 1840.72 1626.64 1852.04 2023.52 2042.4 1967.08 2100.84 1742.6 2004.2 1934.52 2010.84 2264.48
4941.52 4928.6 4922.16 4956.12 5078.88 5241.36 5405.32 5435.08 5261.88 5162.88 5135.92 5076.08 5022.76 4956.52 4903.44 4849.44 4733.56 4695.4 4691.92 4692.88 4672.48 4654.56 4666.24 4677.72 4661.44 4683.24 4720.44 4681.48 4608.6 4591.48 4589.76 4564.56 4560.8 4569 4622.2 4698.92 4728.88 4713.16 4615.36 4532.4 4564.56 4606.04 4616.88 4631.32 4736.6 4860.84 4927.12 4931.48 4939.88 4805.6 4737.64 4757.48 4761.48 4743.24 4704.68 4784.6 4775.8 4855.16 4775.08 4828.88 4778.32 4528.2 4472.2 4478.76 4558.16 4611.68 4722.04 4792.04 4811.44 4869.48 4705.28 4815.04 4744.52 4680.84 4663.08 4682.52 4750.56 4857.6 4836.84 4835.16 4874.28 4960.92 5078.4 5054.4 5056.24 5066.52 5050.44 4776.04 4954.8 4969.24 5027.2 4958.56 4866.08 4837.84 4779 4818.2 4762.44 4694.8 4674.76 4617.8 4752.68 4785.36 4542.72 4408.68 4522.28 4421.24 4393.36 4277.12 4246.12 4227.92 4250.28 4359.56 4533.64 4527.4 4663.52 4772.52 4726.76 4361.16 4133.88 4204.32 4529.92 4598.52 4694.52 4568.84 4885.68 4916.48 4685.48 4420.64 4629.88 4245.12 4572.4 4772.04 4832.68 4544.48 4366.04 4366.72 4521.88 4568.96 4675.92 4704.08 4618.28 4584.24 4483.56 4393.4 4295.36 4270.36 4281.28 4344.16 4435.12 4529.08 4574.6 4568.36 4485.88 4381.52 4269.88 4340.6 4440.48 4511.12 4533.48 4563.8 4575.88 4548.52 4487.8 4425.68 4312.28 4302 4411.04 4262.2 4264.12 4267.32 4245.2 4222.52 4244.16 4266.68 4267.32 4279.12 4334.16 4394 4418.08 4432.32 4437.32 4408.12 4386.72 4344.52 4298.08 4274.64 4274.6 4272.64 4234.92 4384.28 4535.16 4497.36 4364.2 4323 4185.44 4262 4447.88 4368.72 4248.4 4098 4104.6 4050.96 4160.2 4240.36 4184.36 4088.2 4018.2 4039.76 4076.64 4144.88 4208.64 4295.96 4318.04 4248.48 4374.52 4264.08 4162.48 4048.68 4215.68 4137.04 4278.64 4447.2 4443.6 4265.4 4219.2 4213.56 4151.52 4279.64 4097.44 4201.04 4395.32 4233.6 4128.12 3963.2 3894.96 4157.24 4204.4 3894.68 3775.04 4124.64 4143.52 3821.76 4084.36 4006.4 4128.28 4033.2 4150.32 4285.8 4219.28 4058.56 3724.56 3632.2 3570.64 3635.6 3770.4 3741.4 3599.4 3660.8 3798.52 3800.96 3718 3617.04 3528.48 3480.68 3442.32 3418.08 3422.2 3416.84 3417 3437.52 3448.12 3480.2 3481.2 3480.52 3458 3432.44 3424.36 3434.76 3430.44 3453.6 3453.8 3432.08 3429.44 3440.36 3479.8 3550.8 3591.16 3680.92 3752.08 3816.2 3633.04 3460.88 3461.8 3221.12 2869.88 3290.6 3224.12 3567.12 3700.56 3438.84 3441.12 3159.72 3053.36 2823.2 3031.4 2951.68 2705.44 3331.08 3309.6 2801.08 2274.36 2493.84 2773.56 2732.36 2045.32 1946.44 2188 2492.56 2484.44 2892.08 2777.28 2144.2 1908.64 2527.48 2841.68 2592.64 2407 2078.72 1874.12 1706.72 1598.36 1623.92 1743.08 1623.2 1589.44 1566 1600.84 1553.08 1680.6 1809.92 1783.92 1821.04 1707.04 1741.6 1620.88 1737.52 1580.88 1521.28 1488.36 1366.2 1237.12 1221.08 1218.92 1151.92 1171.8 1118 1056.16 1083.28 987.04 1014 1020.68 929.6 919.12 1095.56 1073.56 1173.72 1102.56 1169.04 1227.36 1295.08 1385.08 1336.76 1403.08 1413.32 1495.44 1563.24 1674.08 1714.44 1574.92 1697.48 1530.88 1311.72 1612.32 1302.44 1420.08 1619.12 1439.64 1673.4 1871.56 2087.48 1916.92 1805.04 1912.84 1617.52 1663.84 1751.2 1855.88 1899.96
